# .PCD v0.7 - Point Cloud Data file format
VERSION 0.7
FIELDS x y z
SIZE 4 4 4
TYPE F F F
COUNT 1 1 1
WIDTH 267
HEIGHT 1
VIEWPOINT -18.2321 96.2205 -1.35163 -0.354149 -0.00701479 0.0211809 0.934923
POINTS 267
DATA ascii
-55.244801 -2.5374 23.549002
-55.324833 -2.3696666 23.714167
-55.156334 -2.3422 23.588867
-55.080666 -2.1311336 23.647551
-55.059887 -1.9253334 23.725555
-53.275337 0.84066671 23.742666
-53.075035 1.0831667 23.688801
-52.92844 1.19075 23.60775
-52.852997 1.3801249 23.660978
-52.729668 1.4596667 23.570669
-52.761101 1.6071 23.726101
-52.556168 1.8589722 23.683195
-52.442467 1.9205334 23.589066
-52.347694 2.1281669 23.639637
-52.283997 2.3327501 23.7365
-52.080452 2.5876667 23.674633
-55.346184 -2.131881 23.907299
-55.241165 -2.111167 23.792168
-55.288334 -1.9673333 23.970001
-55.133774 -1.8475833 23.875908
-55.051498 -1.632 23.9615
-53.444309 0.64695835 23.810343
-53.365074 0.86049384 23.874355
-53.233334 0.93900001 23.771332
-53.282166 1.0438334 23.923998
-53.156769 1.1691874 23.868633
-53.071632 1.35155 23.908169
-52.958378 1.4311249 23.8325
-53.030998 1.503 23.987
-52.882507 1.6086855 23.885307
-52.73 1.714 23.778
-52.766003 1.8500001 23.944
-52.67749 1.8777709 23.854979
-52.573822 2.098177 23.898794
-52.447124 2.1483126 23.780313
-52.378811 2.3695877 23.880388
-52.279312 2.5723748 23.915688
-52.158257 2.6667001 23.840899
-52.076939 2.8565311 23.895739
-51.963886 2.9728889 23.844223
-52.032501 3.0190001 23.973
-51.896324 3.1205001 23.88027
-55.5448 -2.1701667 24.153667
-55.443066 -2.0862331 24.081333
-55.34322 -1.8602221 24.143446
-55.231003 -1.80475 24.048752
-55.311798 -1.7038999 24.23325
-55.146538 -1.6060741 24.093445
-55.082165 -1.4400001 24.160166
-54.995998 -1.475 24.037001
-54.077168 0.156 24.222834
-53.866432 0.37558332 24.132868
-53.792873 0.53012502 24.161751
-53.650463 0.64274997 24.07287
-53.58894 0.8457619 24.166273
-53.464733 0.92506665 24.065802
-53.378693 1.1311033 24.128901
-53.249336 1.2476667 24.049335
-53.27475 1.329 24.157999
-53.194294 1.3965139 24.107431
-53.076355 1.6045715 24.135412
-52.974503 1.6670001 24.043999
-52.88966 1.8495166 24.101452
-52.805809 2.0732501 24.190062
-52.689163 2.1703906 24.115194
-52.584229 2.3563809 24.13994
-52.477051 2.39715 24.033951
-52.526127 2.5469999 24.219749
-52.393032 2.613677 24.102907
-52.301212 2.8143215 24.158037
-52.180496 2.9250002 24.088499
-52.096756 3.1348035 24.153933
-51.938168 3.1964998 24.010834
-51.913799 3.2846999 24.0438
-55.589664 -2.0362222 24.331556
-55.567734 -1.920514 24.38439
-55.460587 -1.8334584 24.315168
-55.518997 -1.7435 24.467499
-55.357399 -1.6204956 24.366377
-55.292431 -1.4432667 24.430567
-55.168282 -1.3455186 24.36248
-54.41 -0.0385 24.4925
-54.316254 0.046749998 24.447001
-54.1745 0.16236112 24.353498
-54.077179 0.35329163 24.388979
-53.959499 0.433 24.310333
-54.031998 0.52600002 24.473999
-53.878254 0.63573611 24.365671
-53.735001 0.7446667 24.266668
-53.814339 0.80124998 24.426249
-53.684238 0.88887501 24.331551
-53.602787 1.0991019 24.396221
-53.519001 1.326 24.487
-53.397411 1.378455 24.362867
-53.313301 1.5803499 24.419899
-53.199699 1.6441333 24.336102
-53.110718 1.8494804 24.387922
-52.962502 1.9468751 24.283001
-53.042 2.03725 24.464251
-52.904388 2.1412408 24.373426
-52.806198 2.3335333 24.407135
-52.693798 2.4221668 24.335135
-52.605309 2.636992 24.401058
-52.433502 2.7484999 24.271999
-52.519333 2.8439999 24.466335
-52.419567 2.8742926 24.361374
-52.316784 3.0907502 24.409184
-52.197834 3.1559167 24.305084
-55.618641 -1.83128 24.55724
-55.588257 -1.652473 24.653378
-55.456669 -1.5861666 24.537083
-55.539001 -1.4760001 24.743999
-55.380821 -1.3507894 24.636305
-55.274498 -1.1404999 24.6735
-55.220001 -1.198 24.5585
-55.029999 -0.71499997 24.738001
-54.599247 -0.093687497 24.678875
-54.4785 -0.039000001 24.569
-54.515999 0.035999998 24.682499
-54.379627 0.14899166 24.602825
-54.307995 0.36005002 24.688534
-54.192394 0.42189997 24.5928
-54.09407 0.59948963 24.620802
-53.992001 0.67750001 24.547501
-54.05825 0.75225002 24.702
-53.905064 0.87908334 24.611565
-53.811478 1.079525 24.656902
-53.724125 1.1292084 24.585291
-53.760498 1.2639999 24.744751
-53.599537 1.364525 24.616318
-53.455002 1.475 24.518999
-53.537003 1.5304999 24.6775
-53.409576 1.6466249 24.607151
-53.325764 1.8404444 24.670694
-53.211731 1.9166501 24.577185
-53.2514 2.0546002 24.7488
-53.116009 2.1315832 24.640684
-52.9729 2.1992002 24.5242
-53.052502 2.3262222 24.72489
-52.89806 2.4260728 24.602865
-52.811684 2.6317468 24.667467
-52.698784 2.6688833 24.558466
-52.619347 2.8844352 24.628723
-52.478001 2.9679999 24.515999
-52.546833 3.0691669 24.688833
-52.441742 3.1044917 24.589092
-55.66354 -1.5697083 24.848125
-55.583111 -1.3792397 24.88278
-55.436001 -1.279 24.769001
-55.541252 -1.2062501 24.966999
-55.391739 -1.1143519 24.853334
-55.330944 -0.92427778 24.924692
-55.200825 -0.8290953 24.835417
-55.098724 -0.62843752 24.877783
-54.98275 -0.54874998 24.7855
-55.019669 -0.40700001 24.958168
-54.895386 -0.35334814 24.843489
-54.7995 -0.15378571 24.891857
-54.688625 -0.075020835 24.811253
-54.609871 0.12052 24.881626
-54.443001 0.24499999 24.761499
-54.546375 0.30087501 24.952375
-54.412056 0.39251852 24.849373
-54.337502 0.59694999 24.930449
-54.189938 0.64997917 24.784634
-54.25425 0.75375009 24.95175
-54.120937 0.87259263 24.879221
-53.96225 0.96649998 24.764
-54.024334 1.0714999 24.937002
-53.914333 1.1385596 24.838108
-53.854336 1.3236667 24.914333
-53.7155 1.4246875 24.830063
-53.63805 1.6069334 24.874973
-53.495998 1.732 24.801001
-53.554916 1.78725 24.918417
-53.410725 1.9109694 24.83593
-53.359085 2.1003749 24.926794
-53.237083 2.1924167 24.84675
-53.271248 2.2554998 24.947001
-53.128532 2.392117 24.877216
-53.057251 2.5671873 24.929001
-52.912781 2.6596875 24.821314
-52.851593 2.858881 24.910688
-52.720501 2.9344375 24.800375
-52.766502 3.0174999 24.936001
-52.643623 3.063875 24.813877
-55.714973 -1.3179047 25.115879
-55.611282 -1.1342084 25.118969
-55.466 -1.0265 25.0415
-55.542637 -0.9222222 25.218834
-55.418919 -0.8578611 25.100046
-55.321552 -0.65141666 25.153723
-55.214439 -0.57731247 25.075562
-55.260002 -0.44833335 25.236334
-55.112827 -0.37207407 25.108648
-55.059555 -0.18177779 25.209
-54.934063 -0.10382408 25.11738
-54.826874 0.088228568 25.133646
-54.715042 0.2095 25.093708
-54.794998 0.26300001 25.244499
-54.615192 0.37869582 25.11323
-54.536766 0.5765 25.1719
-54.434162 0.65870833 25.116167
-54.335457 0.84835833 25.143375
-54.190498 0.96875 25.052
-54.257 1.074 25.237
-54.128769 1.1285223 25.116001
-54.040749 1.3459165 25.175333
-53.93681 1.4101667 25.095627
-53.829212 1.608713 25.129845
-53.701248 1.7337501 25.060125
-53.774498 1.8145001 25.229668
-53.623005 1.9128959 25.118668
-53.492001 1.993 25.007
-53.551186 2.0809999 25.159634
-53.428238 2.1701806 25.078072
-53.370541 2.355381 25.162846
-53.223892 2.4305556 25.039892
-53.283501 2.5444999 25.2085
-53.149132 2.6295788 25.105286
-53.084473 2.8148057 25.181528
-52.945152 2.8903999 25.062849
-52.844666 3.0159998 25.032667
-55.775665 -1.0931666 25.390333
-55.703873 -1.0764375 25.29525
-55.758247 -0.96975005 25.466499
-55.632835 -0.86855555 25.382608
-55.564114 -0.69372225 25.431833
-55.426949 -0.59156668 25.341917
-55.331398 -0.38459167 25.395241
-55.196609 -0.29183334 25.290445
-55.12706 -0.10154167 25.370916
-55.075542 0.065708339 25.44244
-54.925289 0.15604168 25.320602
-54.844856 0.3770729 25.412624
-54.708416 0.40466666 25.255085
-54.764 0.54624999 25.448
-54.647449 0.64046973 25.371614
-54.542725 0.85175002 25.4223
-54.446651 0.89751387 25.342096
-54.352322 1.1143186 25.407566
-54.241005 1.1259999 25.252335
-54.277405 1.2698001 25.458601
-54.151695 1.3782067 25.358212
-54.052574 1.6039066 25.432936
-53.921314 1.6687167 25.301401
-53.847126 1.8823897 25.407398
-53.725998 1.946 25.2785
-53.778999 2.0205002 25.434124
-53.665318 2.1175938 25.360939
-53.540524 2.3294284 25.383488
-53.45998 2.4121876 25.336647
-53.339157 2.6261971 25.37929
-55.789001 -1.001 25.580999
-55.793499 -0.94899994 25.588167
-55.712891 -0.81833333 25.559
-55.590546 -0.65106249 25.547625
-55.507 -0.49200001 25.561001
-55.399689 -0.36037499 25.547501
-55.268303 -0.18430001 25.535301
-55.1945 -0.072166666 25.530001
-55.072433 0.1191875 25.533001
-54.961334 0.24166667 25.531334
-54.883503 0.39450002 25.518667
-54.802166 0.52666664 25.517334
-54.68425 0.68000001 25.511501
-54.576 0.81800002 25.506666
