# .PCD v0.7 - Point Cloud Data file format
VERSION 0.7
FIELDS x y z
SIZE 4 4 4
TYPE F F F
COUNT 1 1 1
WIDTH 136
HEIGHT 1
VIEWPOINT -18.2321 96.2205 -1.35163 -0.354149 -0.00701479 0.0211809 0.934923
POINTS 136
DATA ascii
22.519308 -15.805992 0.63425833
22.497 -15.743 0.62599999
22.623371 -15.681501 0.6351952
22.787245 -15.538848 0.64672118
22.910166 -15.427901 0.61985117
23.054216 -15.302812 0.64796925
23.177479 -15.177435 0.63735449
23.306047 -15.053852 0.64959747
23.436413 -14.939547 0.62162626
23.846903 -14.556834 0.64038604
24.218231 -14.219253 0.64833063
22.377007 -15.878567 0.87005335
22.630989 -15.667168 0.88118577
22.78126 -15.531337 0.90394884
22.919106 -15.408696 0.86151814
23.04668 -15.29328 0.89829737
23.172091 -15.170995 0.87788266
23.299252 -15.046506 0.89983702
23.432785 -14.931803 0.86425227
23.568649 -14.805962 0.87430847
23.692417 -14.693398 0.87649024
23.834574 -14.558342 0.88826168
23.930185 -14.458617 0.87377626
24.093693 -14.318782 0.87084734
24.196867 -14.209912 0.85424072
22.391104 -15.857515 1.1104145
22.639513 -15.643723 1.1336403
22.803946 -15.510222 1.1352223
22.892666 -15.416974 1.1347666
23.039207 -15.288369 1.1496726
23.176746 -15.151926 1.1283674
23.287798 -15.045042 1.1327879
23.40995 -14.933239 1.144033
23.551159 -14.809334 1.1271398
23.678247 -14.689532 1.1349393
23.812696 -14.56743 1.0996196
23.93018 -14.452046 1.1204494
24.092463 -14.307651 1.1343054
24.220312 -14.19109 1.111344
24.333708 -14.088373 1.1203053
22.383085 -15.848417 1.3619753
22.633348 -15.635163 1.3767284
22.893492 -15.39649 1.3856547
23.032364 -15.285722 1.3911495
23.147833 -15.168571 1.3747238
23.2925 -15.031967 1.3729241
23.419519 -14.920912 1.3783058
23.554226 -14.794596 1.371307
23.688948 -14.670081 1.3787981
23.808195 -14.558736 1.3500596
23.945017 -14.433381 1.3641404
24.093826 -14.296075 1.3689257
24.20582 -14.195203 1.3802589
24.346605 -14.069061 1.3801488
22.366453 -15.849774 1.6172792
22.641762 -15.619706 1.6319076
22.882042 -15.400172 1.6206325
23.037989 -15.27093 1.623408
23.152903 -15.149961 1.6216575
23.287428 -15.029529 1.6272122
23.393213 -14.932774 1.6495578
23.544672 -14.792279 1.6466185
23.674553 -14.675083 1.6376581
23.796604 -14.558205 1.6271521
23.938643 -14.427579 1.6352561
24.060963 -14.315363 1.6312897
24.192749 -14.19298 1.6492951
24.335323 -14.063778 1.6053286
22.377127 -15.831335 1.8696182
22.496 -15.694 1.973
22.60758 -15.637204 1.8761784
22.894203 -15.379592 1.8661246
23.127134 -15.165081 1.8485494
23.27422 -15.030075 1.868041
23.399712 -14.916162 1.8854049
23.541584 -14.787154 1.8978604
23.668741 -14.667994 1.8773218
23.804508 -14.541412 1.8724394
23.919846 -14.434957 1.8791473
24.063347 -14.303719 1.8686574
24.186073 -14.190159 1.8965412
24.353134 -14.048861 1.843051
22.211424 -15.928394 2.1482143
22.376497 -15.81956 2.1052084
22.623564 -15.611917 2.1405661
22.886976 -15.373241 2.1348689
23.143236 -15.138903 2.1180918
23.285238 -15.015503 2.0859365
23.376833 -14.91937 2.1366432
23.529003 -14.787837 2.1284652
23.659702 -14.667584 2.1353302
23.793531 -14.540277 2.1272972
23.911539 -14.433153 2.1229208
24.059414 -14.296222 2.1300445
24.189058 -14.177226 2.1213844
22.211264 -15.922313 2.3984842
22.369698 -15.814539 2.3624675
22.605268 -15.622181 2.3869035
22.863569 -15.383713 2.3746309
23.132086 -15.141099 2.3592992
23.391308 -14.901841 2.3693607
23.541147 -14.766836 2.3627353
23.647335 -14.66163 2.3723326
23.780457 -14.544614 2.3677058
23.924057 -14.413473 2.3635097
24.041513 -14.301898 2.3706276
24.169615 -14.18626 2.3650498
24.340078 -14.047852 2.3933444
22.169363 -15.868936 2.6091342
22.380354 -15.804678 2.5754306
22.151363 -15.659796 2.6957281
22.363329 -15.573441 2.6425958
22.615103 -15.611659 2.5816402
22.385326 -15.388794 2.7038348
22.634851 -15.357093 2.6291707
22.889462 -15.344679 2.5697911
22.643579 -15.153281 2.7004781
22.862326 -15.087971 2.6240656
23.102354 -15.136456 2.567477
23.087963 -14.848332 2.6433737
23.338694 -14.909117 2.5604482
23.552141 -14.753794 2.5425863
23.196878 -14.701111 2.6751831
23.352335 -14.593617 2.6458666
23.623444 -14.622535 2.5574791
23.783154 -14.537206 2.5349681
23.421936 -14.421597 2.6893036
23.627411 -14.361269 2.632266
23.8922 -14.358953 2.552681
24.046055 -14.293659 2.5363364
23.689135 -14.193323 2.6804502
23.871317 -14.113355 2.6260574
24.097351 -14.120217 2.5564446
24.30168 -14.057096 2.5349169
22.168999 -15.661 2.7684999
22.425667 -15.434334 2.7590003
