# .PCD v0.7 - Point Cloud Data file format
VERSION 0.7
FIELDS x y z
SIZE 4 4 4
TYPE F F F
COUNT 1 1 1
WIDTH 88
HEIGHT 1
VIEWPOINT -18.2321 96.2205 -1.35163 -0.354149 -0.00701479 0.0211809 0.934923
POINTS 88
DATA ascii
7.4222765 -29.285528 9.636054
7.3809428 -29.336191 9.8808012
7.2525334 -29.238338 9.8526678
7.2016144 -29.275341 10.151969
7.3755708 -29.388443 10.125102
7.16154 -29.282429 10.363739
7.3725519 -29.392973 10.366088
7.1489792 -29.261881 10.648286
7.3711996 -29.384481 10.642421
7.1913714 -29.280565 10.894334
7.3759899 -29.382805 10.886353
7.0769134 -29.202768 10.909246
7.2140002 -29.287624 11.0985
7.3865018 -29.362989 11.128363
7.0990367 -29.209478 11.114571
7.2254672 -29.28434 11.35075
7.4058132 -29.341494 11.359302
6.9730711 -29.197723 11.378683
7.0945053 -29.19301 11.38285
7.2345252 -29.277353 11.650055
7.3935065 -29.331766 11.628098
6.9534707 -29.212372 11.627974
7.103507 -29.189018 11.636208
7.2385702 -29.270924 11.898372
7.3892031 -29.313232 11.870726
6.9552727 -29.194233 11.873549
7.1097298 -29.182724 11.879191
7.2470627 -29.270313 12.049875
7.3854194 -29.312572 12.130366
6.9396529 -29.201099 12.12837
7.1125889 -29.173613 12.136711
7.2496634 -29.260265 12.302226
7.3871078 -29.294651 12.393332
6.944911 -29.178705 12.372752
7.0891047 -29.148834 12.369516
7.3704658 -29.302622 12.605503
6.9377055 -29.171392 12.649491
7.1163087 -29.155977 12.636062
7.3582659 -29.246975 12.699696
7.3683343 -29.299652 12.87318
6.951055 -29.137846 12.877218
7.1143036 -29.144962 12.882397
7.3823195 -29.285065 13.136637
6.942821 -29.132647 13.134148
7.0832605 -29.114286 13.120395
7.3675561 -29.209757 13.147457
7.3744788 -29.284628 13.390486
6.9221668 -29.149799 13.364494
7.1208911 -29.131542 13.359363
7.361074 -29.283783 13.624483
6.907671 -29.156837 13.641644
7.1474175 -29.14024 13.621588
7.3931274 -29.214804 13.622231
7.3545637 -29.271126 13.900936
6.9077225 -29.145517 13.875291
7.1278548 -29.12015 13.861745
7.3860779 -29.198755 13.862605
7.3548136 -29.264252 14.102688
6.8963957 -29.148573 14.137991
7.1339693 -29.117649 14.104427
7.3900242 -29.191956 14.138765
7.3549867 -29.255516 14.353232
6.8889341 -29.146681 14.381237
7.1379166 -29.113909 14.35299
7.4253035 -29.157841 14.371747
7.1430402 -29.107872 14.638803
7.4089546 -29.170921 14.627026
7.1446481 -29.102125 14.883242
7.3802724 -29.181042 14.857666
6.9834995 -28.990625 14.889
7.1375031 -29.091446 15.130547
7.3894043 -29.153872 15.134148
6.9761076 -28.99049 15.100009
7.1286345 -29.080294 15.375684
7.3763814 -29.161722 15.375106
6.9763694 -28.984947 15.354917
7.0120001 -29 15.352
7.1455011 -29.089769 15.639832
7.3901277 -29.138994 15.623673
6.9737868 -28.981127 15.646546
7.0149999 -28.999001 15.651834
7.1359339 -29.081095 15.861658
7.3685603 -29.146568 15.873665
6.9693179 -28.977514 15.904171
7.0172081 -28.998585 15.893666
7.1689696 -29.080872 16.130686
7.3717694 -29.127846 16.141851
7.3693304 -29.123037 16.385139
