# .PCD v0.7 - Point Cloud Data file format
VERSION 0.7
FIELDS x y z
SIZE 4 4 4
TYPE F F F
COUNT 1 1 1
WIDTH 124
HEIGHT 1
VIEWPOINT -18.2321 96.2205 -1.35163 -0.354149 -0.00701479 0.0211809 0.934923
POINTS 124
DATA ascii
103.2822 -44.1362 12.908
103.23466 -44.189667 13.144251
103.26584 -44.089169 13.071667
103.29521 -43.897942 13.148388
103.34485 -43.652714 13.121
103.17825 -44.359501 13.348462
103.22137 -44.110626 13.359625
103.235 -43.956253 13.414249
103.26992 -43.829754 13.430584
103.313 -43.650356 13.358214
103.13694 -44.344109 13.651222
103.18561 -44.089527 13.615139
103.19695 -43.871063 13.637688
103.2715 -43.755997 13.541
103.17834 -43.646999 13.646333
103.26225 -43.587502 13.549
102.9745 -44.361 13.9545
103.08763 -44.408623 13.849375
103.07337 -44.129128 13.892313
103.15475 -43.872417 13.863917
103.19475 -43.681751 13.781
103.08444 -44.374557 14.113945
103.11613 -44.145073 14.113428
103.05566 -44.413746 14.356834
103.09257 -44.162064 14.368937
103.16034 -43.979664 14.359668
103.36971 -43.874001 14.3725
103.558 -43.752998 14.434
103.55534 -43.723331 14.361333
103.00784 -44.566998 14.6065
103.02836 -44.396446 14.6287
103.08228 -44.122566 14.604072
103.1745 -43.971001 14.594999
103.38916 -43.883499 14.572501
103.54501 -43.772999 14.635666
103.584 -43.678001 14.617
102.9922 -44.634598 14.908501
103.01333 -44.597 14.799
102.9975 -44.362999 14.9415
103.01553 -44.375385 14.856335
103.38022 -43.92944 14.848334
103.52525 -43.796745 14.835001
103.546 -43.660751 14.821501
102.98207 -44.577671 15.133
102.99361 -44.412201 15.1532
103.009 -44.35025 15.127999
103.07607 -44.09235 15.14135
103.37263 -43.930687 15.141251
102.9659 -44.606335 15.3738
102.9896 -44.377003 15.411799
103.005 -44.3265 15.32275
102.998 -44.191002 15.479
103.07587 -44.068832 15.393279
103.37337 -43.897877 15.422249
103.5 -43.804001 15.313
102.95358 -44.616718 15.652278
102.97466 -44.354168 15.596833
102.994 -44.167252 15.59375
103.0875 -44.033001 15.61375
103.35386 -43.921356 15.667214
103.475 -43.714001 15.622
102.95079 -44.620586 15.91175
102.96727 -44.349941 15.856666
102.98116 -44.138947 15.877501
103.0681 -44.021099 15.8759
103.2415 -43.952 15.903
103.37524 -43.881001 15.899626
103.47371 -43.6595 15.861
102.93669 -44.638069 16.115866
102.958 -44.345165 16.106001
102.98763 -44.105671 16.108126
103.007 -44.032001 16.016001
103.18867 -43.965168 16.082417
103.35641 -43.854797 16.127598
103.46951 -43.637165 16.093834
102.95267 -44.342167 16.347221
102.97562 -44.114441 16.348028
103.1395 -43.908218 16.372721
103.31325 -43.831497 16.329
103.42007 -43.679497 16.381702
102.95263 -44.344223 16.655001
102.98049 -44.107563 16.634068
102.998 -43.932999 16.658001
103.11814 -43.855049 16.659502
103.274 -43.7915 16.541
103.39492 -43.656429 16.627644
102.95959 -44.343334 16.905167
102.97829 -44.133301 16.864201
103 -44.026001 16.972
102.998 -43.931999 16.816999
103.07951 -43.837315 16.9125
103.2365 -43.667999 16.908501
103.35941 -43.617168 16.848665
102.95557 -44.35257 17.117857
102.988 -44.139 17.148499
103.0015 -44.0625 17.139999
103.04981 -43.856625 17.102438
103.17038 -43.682751 17.120186
103.34163 -43.534252 17.120501
103.42425 -43.472752 17.234751
102.98966 -44.151836 17.430834
103.01013 -44.056377 17.349751
103.03324 -43.873333 17.353333
103.1145 -43.653442 17.357063
103.2535 -43.528999 17.401501
103.37701 -43.452499 17.396126
102.994 -44.181999 17.5945
103.01047 -44.088833 17.641417
103.04359 -43.886169 17.615807
103.10469 -43.600941 17.626375
103.13599 -43.479 17.661333
103.31475 -43.425415 17.629999
102.98214 -44.378502 17.848928
103.0065 -44.279499 17.901001
103.02051 -44.0858 17.882
103.0576 -43.901501 17.8715
103.08873 -43.641129 17.872906
103.13174 -43.431999 17.913376
103.29633 -43.376003 17.845833
103.03375 -44.091167 18.085375
103.05949 -43.9011 18.1283
103.09521 -43.64061 18.133888
103.052 -44.109001 18.259666
103.049 -43.949001 18.266001
