# .PCD v0.7 - Point Cloud Data file format
VERSION 0.7
FIELDS x y z
SIZE 4 4 4
TYPE F F F
COUNT 1 1 1
WIDTH 117
HEIGHT 1
VIEWPOINT -18.2321 96.2205 -1.35163 -0.354149 -0.00701479 0.0211809 0.934923
POINTS 117
DATA ascii
-55.347 5.3773332 6.153667
-55.005001 5.421 6.152
-54.969498 5.3594999 6.1560001
-54.683998 5.3505001 6.1599998
-54.354752 5.309 6.1634998
-54.06525 5.2992501 6.1662502
-53.7985 5.2825003 6.1719999
-53.596497 5.3760004 6.1704998
-53.099998 5.4590001 6.1729999
-55.611 5.6964998 6.1490002
-55.327999 5.7309999 6.145
-55.208 5.6350002 6.145
-54.941002 5.6490002 6.1475
-54.622002 5.6155 6.1504998
-54.329498 5.636167 6.1513329
-54.076752 5.6555004 6.1549997
-53.842999 5.5734444 6.1605554
-53.567501 5.6574998 6.1584997
-53.414001 5.6371665 6.1611667
-53.147499 5.594625 6.165
-56.371002 5.9160004 6.140667
-55.926666 5.8616662 6.1348329
-55.598503 5.8788748 6.1368752
-55.385002 5.8310003 6.1455002
-55.188751 5.9087501 6.1352501
-54.907001 5.8445001 6.1378746
-54.575001 5.8548336 6.1399999
-54.375504 5.842 6.1420002
-54.21217 5.8876667 6.1428337
-53.889198 5.8958001 6.1454
-53.580502 5.882833 6.1476669
-53.340668 5.9130001 6.1463332
-53.105873 5.869875 6.1537499
-52.886253 5.9239998 6.1525002
-56.251503 6.0415001 6.1335001
-56.145 6.171 6.1246667
-55.813 6.0960002 6.1254997
-55.598164 6.1238332 6.1326671
-55.421001 6.2275 6.1315002
-55.09 6.0929999 6.1269999
-54.918331 6.139667 6.1256671
-54.67775 6.1247501 6.1272497
-54.379002 6.1389999 6.131
-54.045502 6.0827498 6.1347499
-53.862999 6.1830001 6.1409998
-53.6115 6.1503334 6.1418328
-53.379002 6.0539999 6.1370001
-53.14975 6.1322498 6.1387496
-52.892334 6.1303334 6.1439996
-56.062 6.4369998 6.1129999
-55.964336 6.3486667 6.1130004
-55.651249 6.362 6.1117496
-55.398998 6.3709998 6.1230001
-55.0765 6.3649998 6.1204996
-54.686337 6.3449998 6.1186671
-54.358501 6.3404999 6.1199999
-54.074833 6.3515 6.1221671
-53.879501 6.3614998 6.132
-53.589001 6.4400001 6.1230001
-53.127502 6.4168749 6.1238747
-52.955498 6.4005003 6.1280003
-52.688873 6.4060001 6.1304998
-56.082996 6.6416664 6.1066666
-55.889 6.737 6.0999999
-55.606003 6.6827497 6.0997496
-55.300701 6.6575003 6.1099
-54.840164 6.6421666 6.1061668
-54.55275 6.6135001 6.1075001
-54.404503 6.6355 6.1079998
-54.171375 6.6395421 6.1070418
-53.916168 6.5679994 6.1136665
-53.653168 6.6062775 6.1137776
-53.428001 6.6867499 6.1080003
-53.147499 6.6094999 6.1161003
-52.895248 6.6385002 6.1177502
-52.595669 6.6078339 6.1223335
-55.8825 6.8140001 6.0959997
-55.689499 6.9499998 6.0895004
-55.383163 6.8790002 6.0901666
-55.200401 6.8695998 6.1099997
-54.789501 6.9160004 6.0974998
-54.715332 6.8929996 6.0970001
-54.417999 6.8877501 6.0967503
-54.087833 6.8785 6.0970001
-53.798336 6.8799996 6.0999999
-53.52 6.7950001 6.1020002
-53.425663 6.8939996 6.0986667
-53.174664 6.8628335 6.1044998
-52.891003 6.9252224 6.1062222
-52.610584 6.8448753 6.1145835
-55.806999 7.0869999 6.0840001
-55.699833 7.1096663 6.0850005
-55.367001 7.1113749 6.08325
-55.170197 7.1311998 6.1006994
-54.785 7.2259998 6.0840001
-54.693249 7.0965004 6.0882497
-54.414124 7.15275 6.0853748
-54.105499 7.1556664 6.0866675
-53.817669 7.1563334 6.0873337
-53.622124 7.0771246 6.0918751
-53.392502 7.1287498 6.0927501
-53.171497 7.0992503 6.0964999
-52.889664 7.0903335 6.1026669
-52.676998 7.0609999 6.1059999
-52.432999 7.066 6.1094999
-55.772247 7.4169998 6.0692501
-55.660999 7.2610002 6.079
-55.431 7.3910007 6.071167
-55.085251 7.3208752 6.0827498
-54.957668 7.368 6.0933337
-54.466999 7.3010001 6.0799999
-53.624332 7.3793335 6.0846667
-53.278 7.4455004 6.085
-52.986 7.4045 6.0904999
-52.703751 7.3847504 6.0939999
-55.363998 7.6774998 6.0625
-54.946499 7.6389999 6.0739999
