# .PCD v0.7 - Point Cloud Data file format
VERSION 0.7
FIELDS x y z
SIZE 4 4 4
TYPE F F F
COUNT 1 1 1
WIDTH 135
HEIGHT 1
VIEWPOINT -18.2321 96.2205 -1.35163 -0.354149 -0.00701479 0.0211809 0.934923
POINTS 135
DATA ascii
101.868 -59.389 15.42
101.91233 -58.905334 15.377334
101.979 -58.688 15.389
101.804 -59.397999 15.658501
101.79025 -59.076248 15.653501
101.87675 -58.890251 15.62225
101.91967 -58.717667 15.603667
101.754 -59.508751 15.880751
101.781 -59.337002 15.908
101.745 -59.117001 15.973
101.79875 -59.102997 15.82575
101.8525 -58.875248 15.889501
101.883 -58.728001 15.792
101.864 -58.4305 15.91325
101.771 -59.518002 16.157
101.787 -59.432999 16.07
101.696 -59.162251 16.19175
101.765 -59.128502 16.1425
101.81616 -58.815998 16.122499
101.832 -58.605499 16.159
101.85633 -58.394001 16.112001
101.7135 -59.436001 16.3965
101.6675 -59.169502 16.381748
101.77366 -59.071331 16.355333
101.797 -58.860668 16.358335
101.794 -58.674 16.364
101.739 -58.458 16.3895
101.843 -58.417 16.472
101.64716 -59.206665 16.646334
101.73875 -58.919998 16.682499
101.76375 -58.843502 16.54575
101.796 -58.675335 16.615999
101.72025 -58.446251 16.617001
101.67039 -59.189495 16.896698
101.7165 -58.860001 16.858
101.754 -58.929001 16.958
101.746 -58.743999 16.847
101.77 -58.6115 16.860001
101.73675 -58.406754 16.87425
101.782 -58.3335 16.7945
101.783 -58.195 16.785
101.713 -59.387001 17.063
101.64426 -59.178249 17.129499
101.727 -58.818001 17.181999
101.73251 -58.670166 17.1415
101.7685 -58.657997 17.114
101.70367 -58.435669 17.094
101.782 -58.193001 17.115
101.66367 -59.35667 17.479668
101.64817 -59.121502 17.409834
101.70034 -58.928333 17.424667
101.722 -58.630001 17.355
101.789 -58.667999 17.451
101.68301 -58.422668 17.341333
101.788 -58.382 17.469
101.698 -59.375 17.649
101.626 -59.140331 17.652334
101.697 -58.861664 17.554335
101.719 -58.727001 17.514
101.76099 -58.619335 17.557333
101.71413 -58.36425 17.615625
101.767 -58.275002 17.542
101.76 -58.179001 17.531
101.6485 -59.392998 17.811001
101.616 -59.134335 17.902334
101.69521 -58.854401 17.823799
101.7175 -58.724503 17.807501
101.77 -58.558998 17.947001
101.696 -58.327 17.912498
101.64133 -59.37167 18.117332
101.6194 -59.115601 18.142599
101.69967 -58.830002 18.079
101.72225 -58.677002 18.128
101.751 -58.547001 18.110001
101.723 -58.341999 18.041
101.76151 -58.3675 18.117001
101.748 -58.169998 18.115999
101.60213 -59.074997 18.412376
101.683 -58.931999 18.372
101.72459 -58.687 18.374199
101.804 -58.487999 18.285
101.62 -59.372498 18.6455
101.60717 -59.093166 18.628666
101.68887 -58.887001 18.647499
101.73267 -58.664337 18.641001
101.768 -58.555 18.701
101.783 -58.410004 18.650331
101.753 -58.171001 18.700001
101.658 -59.301003 18.9065
101.59525 -59.043999 18.887501
101.6872 -58.865601 18.881001
101.7775 -58.632751 18.89325
101.796 -58.480999 18.954
101.709 -58.237 18.9135
101.62399 -59.373501 19.153
101.651 -59.14967 19.130333
101.608 -58.934998 19.118002
101.733 -58.728001 19.1535
101.762 -58.646 19.212
101.697 -58.229 19.120001
101.758 -58.171501 19.248501
101.63 -59.328999 19.32
101.665 -59.206497 19.421
101.64137 -58.878376 19.341125
101.783 -58.756001 19.372999
101.746 -58.636002 19.375
101.80051 -58.483002 19.334
101.7005 -58.138 19.4065
101.756 -58.064999 19.308001
101.773 -57.980999 19.319
101.67621 -59.122997 19.663401
101.67815 -58.848003 19.634571
101.738 -58.631001 19.625999
101.759 -58.546001 19.625999
101.796 -58.479 19.542
101.715 -58.146 19.533001
101.772 -58.072998 19.689499
101.6548 -59.128998 19.918001
101.65285 -58.846287 19.896
101.70933 -58.645832 19.896833
101.7725 -58.585339 19.811834
101.78751 -58.39875 19.846001
101.72826 -58.047501 19.911249
101.782 -58.181999 19.968
101.6786 -58.892998 20.084799
101.766 -58.827999 20.216999
101.69267 -58.602833 20.075666
101.738 -58.392502 20.174999
101.79175 -58.400249 20.16275
101.7445 -58.108002 20.136501
101.7555 -58.167 20.087
101.798 -58.759998 20.386999
101.83067 -58.587002 20.355333
101.77967 -58.333664 20.361834
101.784 -58.181499 20.3475
