# .PCD v0.7 - Point Cloud Data file format
VERSION 0.7
FIELDS x y z
SIZE 4 4 4
TYPE F F F
COUNT 1 1 1
WIDTH 369
HEIGHT 1
VIEWPOINT -18.2321 96.2205 -1.35163 -0.354149 -0.00701479 0.0211809 0.934923
POINTS 369
DATA ascii
102.477 -51.032001 13.708
102.4735 -50.942501 13.6555
102.58675 -50.865749 13.6685
102.662 -50.407001 13.652
102.65334 -50.079334 13.644666
102.73317 -49.985168 13.589333
102.848 -49.790001 13.544
102.20267 -53.114334 13.931334
102.18967 -52.841 13.870833
102.1785 -52.724998 13.9695
102.2745 -52.6395 13.872999
102.357 -52.32 13.937
102.4575 -51.426003 13.916
102.506 -51.403999 13.8475
102.52433 -51.171001 13.896667
102.46125 -50.914001 13.874001
102.563 -50.847668 13.860223
102.633 -50.665333 13.921333
102.69949 -50.334499 13.873
102.68819 -50.135998 13.8664
102.71175 -49.966751 13.86275
102.77 -49.840668 13.908333
102.82637 -49.613876 13.894125
102.20025 -53.074501 14.14325
102.2175 -52.791 14.1005
102.21062 -52.664623 14.16475
102.263 -52.640999 14.148
102.3415 -52.311501 14.056499
102.37167 -52.144333 14.097333
102.36626 -51.831875 14.12725
102.41725 -51.718498 14.087
102.475 -51.390499 14.08
102.506 -51.405998 14.083
102.56134 -51.133331 14.13
102.45984 -50.848164 14.152667
102.55325 -50.845875 14.109375
102.63667 -50.666336 14.218999
102.685 -50.417 14.142
102.759 -50.273998 14.067
102.746 -50.181999 14.072
102.6907 -49.943199 14.1698
102.759 -49.928001 14.088
102.8075 -49.641624 14.084751
102.20899 -53.116669 14.421
102.237 -52.938 14.3225
102.252 -52.987999 14.498
102.19416 -52.618332 14.395
102.2905 -52.556999 14.3815
102.31525 -52.411751 14.3375
102.384 -52.149998 14.356668
102.41734 -51.928665 14.339334
102.3975 -51.664497 14.391999
102.48032 -51.451 14.379666
102.50999 -51.314499 14.337999
102.54 -51.091335 14.421666
102.46775 -50.851997 14.3905
102.557 -50.847336 14.417
102.62167 -50.599667 14.4255
102.645 -50.442497 14.4635
102.6855 -50.1945 14.467
102.67519 -49.8992 14.404001
102.825 -49.776001 14.347
102.80967 -49.646332 14.359501
102.249 -52.986 14.743
102.27 -52.905998 14.651501
102.19933 -52.542332 14.644334
102.2725 -52.639332 14.575
102.32713 -52.42725 14.644625
102.398 -52.097336 14.620334
102.374 -51.634602 14.629901
102.511 -51.313 14.664
102.5465 -51.152 14.586
102.4805 -50.764 14.638
102.546 -50.752502 14.526
102.61182 -50.653 14.634334
102.66051 -50.381752 14.712999
102.6965 -50.198502 14.629499
102.67428 -49.906147 14.646714
102.79133 -49.672333 14.662333
102.2685 -52.862499 14.8465
102.199 -52.508499 14.857
102.29133 -52.648335 14.862332
102.248 -52.442001 14.939
102.3381 -52.382099 14.837801
102.39066 -52.179668 14.887668
102.42 -51.902 14.764
102.38857 -51.6045 14.855
102.48434 -51.391003 14.897332
102.528 -51.415001 14.817
102.52362 -51.162003 14.878375
102.4695 -50.757999 14.839
102.565 -50.955997 14.894668
102.447 -50.745998 14.837
102.57739 -50.670601 14.8906
102.66784 -50.362 14.918667
102.6785 -50.1455 14.923
102.65825 -49.882748 14.8985
102.742 -49.735001 14.903
102.77525 -49.621002 14.92075
102.31725 -52.863499 15.1165
102.32 -52.667 15.217
102.21766 -52.425335 15.138333
102.31625 -52.366753 15.17125
102.363 -52.139999 15.151
102.43974 -51.995003 15.122999
102.38084 -51.567169 15.158833
102.499 -51.306 15.15
102.5525 -51.1105 15.143
102.587 -50.993999 15.174
102.5245 -50.711502 15.104334
102.663 -50.374664 15.067333
102.63065 -49.883354 15.137572
102.743 -49.655998 15.222
102.30701 -52.881001 15.3015
102.288 -52.650002 15.458
102.24249 -52.351501 15.405251
102.31384 -52.354 15.383499
102.39285 -52.151169 15.4175
102.3804 -51.5919 15.3952
102.46667 -51.410168 15.384666
102.519 -51.314999 15.479
102.52234 -51.137669 15.433
102.5575 -50.936001 15.4065
102.4365 -50.738998 15.382999
102.56163 -50.640457 15.350041
102.6455 -50.440498 15.274
102.668 -50.051998 15.382
102.6272 -49.872997 15.4026
102.7405 -49.654503 15.4245
102.399 -52.516998 15.656
102.228 -52.344002 15.546
102.26875 -52.317249 15.634501
102.38775 -52.169498 15.668499
102.4295 -51.945999 15.7075
102.41675 -51.605247 15.63225
102.44 -51.456165 15.636666
102.553 -51.064003 15.6665
102.47501 -50.7575 15.693501
102.4625 -50.7075 15.6505
102.55045 -50.645 15.654167
102.66 -50.401001 15.517
102.59019 -49.890099 15.597201
102.719 -49.643501 15.746
102.328 -52.663666 15.876332
102.248 -52.257999 15.9165
102.30717 -52.366497 15.817833
102.395 -52.149624 15.907001
102.40466 -51.889332 15.91
102.45026 -51.664997 15.883
102.43201 -51.391331 15.868333
102.498 -51.126999 15.911
102.50975 -51.12875 15.942249
102.479 -50.758499 15.938
102.536 -50.9235 15.8905
102.4825 -50.673 15.917
102.56384 -50.596668 15.873001
102.644 -50.301998 15.852
102.67533 -50.199337 15.870334
102.59967 -49.886166 15.849999
102.74 -49.549 15.783
102.747 -49.382999 15.773
102.7725 -49.341999 15.801167
102.28666 -52.277332 16.128334
102.34637 -52.181129 16.118626
102.452 -51.73 16.066
102.4045 -51.407333 16.105499
102.511 -51.129501 16.0835
102.478 -50.938 16.132999
102.474 -50.667999 16.1005
102.55375 -50.598248 16.134501
102.644 -50.300999 16.096001
102.652 -50.216 16.000999
102.5743 -49.880806 16.138401
102.746 -49.550999 16.027
102.7345 -49.415001 16.016499
102.164 -52.664001 16.33
102.323 -52.636497 16.43375
102.35675 -52.381001 16.46575
102.325 -52.150501 16.3785
102.402 -51.886002 16.403
102.42533 -51.628662 16.388666
102.41386 -51.37743 16.351713
102.497 -51.209 16.261999
102.503 -51.210999 16.344999
102.522 -50.778 16.309999
102.43716 -50.648998 16.364666
102.54266 -50.584332 16.385834
102.589 -50.4095 16.322498
102.638 -50.136337 16.310835
102.59142 -49.850666 16.349833
102.70937 -49.639374 16.313873
102.71233 -49.416332 16.312
102.369 -52.59 16.722
102.30263 -52.146622 16.592251
102.417 -51.536999 16.628
102.37458 -51.390835 16.610582
102.525 -51.047001 16.559999
102.42517 -50.642166 16.634333
102.53651 -50.588249 16.640251
102.59933 -50.367664 16.734335
102.6 -50.145 16.7265
102.58329 -49.855572 16.660715
102.691 -49.665501 16.597
102.731 -49.372002 16.665001
102.314 -52.561001 16.959
102.319 -52.382664 16.951666
102.23767 -52.154667 16.849333
102.34799 -52.103249 16.866249
102.37534 -51.870998 16.886332
102.40766 -51.618332 16.875999
102.39216 -51.3685 16.865833
102.48151 -51.091 16.80825
102.503 -51.209999 16.754999
102.47838 -50.823875 16.795626
102.43233 -50.673664 16.920668
102.52667 -50.574329 16.871834
102.64 -50.296001 16.989
102.632 -50.16 16.8955
102.56394 -49.860279 16.876389
102.693 -49.665001 16.921
102.72967 -49.364502 16.919668
102.33167 -52.661331 17.079666
102.288 -52.275002 17.191
102.30237 -52.144497 17.103374
102.389 -51.521 17.113001
102.373 -51.382 17.144999
102.479 -50.934502 17.112499
102.524 -50.870998 17.021
102.43225 -50.6875 17.090126
102.51056 -50.586334 17.133112
102.5665 -50.349251 17.197001
102.5985 -50.098499 17.185001
102.58357 -49.853859 17.149
102.66225 -49.578003 17.156
102.22833 -52.243332 17.346334
102.29939 -52.150597 17.349001
102.381 -51.872002 17.341
102.37283 -51.555332 17.3855
102.37963 -51.352875 17.358875
102.43817 -51.104664 17.323334
102.4625 -50.883003 17.265999
102.41516 -50.678329 17.352333
102.5055 -50.593002 17.4065
102.60513 -49.882748 17.425875
102.721 -49.398998 17.416
102.279 -52.678497 17.5825
102.291 -52.455002 17.604
102.172 -52.213837 17.650667
102.3045 -52.0975 17.61125
102.3625 -51.819 17.662001
102.35221 -51.351601 17.6502
102.434 -51.173 17.558001
102.455 -50.876999 17.713001
102.42667 -50.640003 17.591915
102.54733 -50.399166 17.716833
102.587 -50.070751 17.588249
102.499 -49.870998 17.707001
102.554 -49.857002 17.589251
102.61349 -49.623749 17.641251
102.714 -49.438499 17.6015
102.277 -52.636002 17.9135
102.288 -52.452999 17.768999
102.16325 -52.208252 17.888
102.3095 -52.098835 17.847166
102.32633 -51.871334 17.912001
102.362 -51.679001 17.771
102.329 -51.417751 17.894501
102.40667 -51.161335 17.800333
102.433 -50.953003 17.7635
102.41637 -50.644939 17.836626
102.55767 -50.282001 17.925333
102.469 -50.119999 17.761
102.604 -50.012001 17.892
102.489 -49.864998 17.908001
102.55634 -49.825668 17.864222
102.618 -49.663498 17.889999
102.724 -49.355499 17.880001
102.235 -52.564499 18.123501
102.1915 -52.325874 18.1085
102.19099 -52.221001 18.159
102.27299 -52.1255 18
102.32333 -51.868664 18.129667
102.161 -51.671001 18.243999
102.3055 -51.605999 18.130501
102.308 -51.438 18.1348
102.416 -51.077999 18.021
102.459 -50.876999 18.203499
102.3838 -50.668602 18.139099
102.479 -50.486 18.191
102.5095 -50.363499 18.185501
102.47175 -49.856003 18.089251
102.57412 -49.867752 18.132374
102.666 -49.505001 18.049
102.67867 -49.366333 18.065332
102.212 -52.681 18.389
102.12199 -52.32275 18.414501
102.1994 -52.178902 18.435501
102.28833 -51.892666 18.3475
102.20167 -51.50967 18.4
102.3205 -51.412125 18.343
102.381 -51.146667 18.287001
102.4151 -50.924004 18.411297
102.4 -50.6581 18.370401
102.4695 -50.433998 18.4305
102.52133 -50.322666 18.347
102.46133 -49.850666 18.351665
102.57166 -49.879669 18.396334
102.672 -49.559002 18.276751
102.65825 -49.434753 18.347
102.111 -52.900002 18.74
102.14674 -52.629002 18.65
102.11858 -52.338715 18.629145
102.239 -52.063999 18.73
102.23633 -51.970333 18.658333
102.259 -51.848499 18.667
102.22499 -51.554401 18.632399
102.31512 -51.431999 18.677876
102.38075 -50.901497 18.73175
102.404 -50.653332 18.629835
102.4685 -50.432999 18.675499
102.5255 -50.324001 18.61375
102.55167 -50.070667 18.602667
102.479 -49.858498 18.557999
102.57417 -49.894165 18.601999
102.59667 -49.653996 18.538
102.67138 -49.385502 18.55875
102.09475 -52.871254 18.921249
101.999 -52.390999 18.955
102.09922 -52.372334 18.881777
102.182 -52.034 18.966
102.21933 -51.87167 18.931665
102.27 -51.812 18.827999
102.164 -51.597626 18.878124
102.251 -51.533001 18.880749
102.35899 -51.133797 18.857401
102.234 -50.984001 18.806999
102.3408 -50.824997 18.912201
102.36575 -50.691502 18.91675
102.47 -50.387001 18.917
102.507 -50.313999 18.754999
102.516 -50.095497 18.915501
102.465 -49.940662 18.848001
102.51766 -49.875996 18.851334
102.59475 -49.673 18.8255
102.65 -49.493999 18.863001
102.821 -49.313 18.788
102.02433 -52.824665 19.183666
102.0685 -52.6105 19.1535
101.972 -52.473999 19.172001
102.07225 -52.360996 19.067501
102.175 -52.117336 19.107332
102.23849 -51.836502 19.116001
102.18217 -51.599834 19.139334
102.324 -51.086334 19.170668
102.367 -50.900005 19.195667
102.37537 -50.653431 19.132063
102.47416 -50.342667 19.108667
102.5195 -50.0965 19.12125
102.41451 -49.915253 19.104
102.52 -49.876503 19.057499
102.57034 -49.639668 19.022667
102.64 -49.400749 19.056499
101.98566 -52.922001 19.361
102.025 -52.768002 19.443001
101.9205 -52.526001 19.445
101.96267 -52.468334 19.335665
102.093 -52.349751 19.276751
102.12025 -52.111252 19.353001
102.01 -52.492001 19.509001
