# .PCD v0.7 - Point Cloud Data file format
VERSION 0.7
FIELDS x y z
SIZE 4 4 4
TYPE F F F
COUNT 1 1 1
WIDTH 87
HEIGHT 1
VIEWPOINT -18.2321 96.2205 -1.35163 -0.354149 -0.00701479 0.0211809 0.934923
POINTS 87
DATA ascii
-12.84775 65.003998 1.70825
-12.770792 64.956329 1.8890834
-12.588312 64.820732 1.8976667
-12.849333 65.010254 1.8934166
-12.769722 64.963783 2.1530278
-12.616 64.849045 2.1364245
-12.8515 65.021255 2.1132498
-12.79225 64.987793 2.3427918
-12.613534 64.858437 2.3923001
-12.854167 65.032997 2.345
-12.750668 64.969002 2.6074166
-12.61945 64.873428 2.6397169
-12.830101 65.025101 2.5984998
-12.753334 64.980667 2.8505001
-12.624808 64.887108 2.8911362
-12.832751 65.037666 2.8536663
-12.755445 64.991173 3.1446111
-12.615412 64.889297 3.10695
-12.835777 65.051727 3.1401112
-12.757 64.998001 3.3380001
-12.617542 64.900162 3.3453751
-12.790601 65.028854 3.3908501
-12.631101 64.92086 3.6054802
-12.799541 65.045494 3.6406391
-12.624222 64.925529 3.857486
-12.826201 65.074295 3.8844407
-12.623204 64.933517 4.1049905
-12.819214 65.078995 4.1282144
-12.7316 65.020409 4.2487998
-12.8532 65.112099 4.3622003
-12.738874 65.030128 4.3997498
-12.846467 65.115608 4.5787663
-12.744076 65.042618 4.60355
-12.853084 65.129997 4.8564167
-12.742034 65.051331 4.8472004
-12.854534 65.142448 5.1415834
-12.704876 65.034004 5.1018124
-12.80751 65.119423 5.3751698
-12.691967 65.036568 5.3702002
-12.82018 65.137337 5.6478887
-12.696416 65.050385 5.6371112
-12.837866 65.160912 5.8665667
-12.692125 65.055626 5.9099374
-12.845653 65.176598 6.1054444
-12.688499 65.063545 6.1442084
-12.539 64.962646 6.4084001
-12.830358 65.176552 6.3556542
-12.677528 65.063698 6.3785281
-12.540973 64.972336 6.6470833
-12.836179 65.186844 6.6120954
-12.653999 65.056999 6.6138749
-12.905 65.262001 6.6220002
-12.529333 64.972 6.8820829
-12.803841 65.177078 6.8754106
-12.613763 65.035286 6.8527222
-12.522917 64.973755 7.1098332
-12.809083 65.192047 7.1485
-12.640167 65.064354 7.1343961
-12.905 65.254997 7.2319999
-12.526 64.986504 7.3566666
-12.823201 65.209099 7.3638
-12.6515 65.081665 7.3921108
-12.597317 64.939102 7.6168833
-12.865454 65.151001 7.5953979
-12.652584 65.053833 7.6254797
-12.834666 65.237495 7.8605003
-12.659713 65.10965 7.8582425
-12.794333 65.217789 8.0982914
-12.629223 65.095222 8.1184587
-12.838749 65.253128 8.1920004
-12.754 65.197746 8.3710003
-12.6528 65.12262 8.3797026
-12.837774 65.258575 8.3884001
-12.757333 65.209335 8.6436663
-12.649813 65.129723 8.6280184
-12.428555 65.017136 8.6144047
-12.8458 65.272423 8.6123753
-12.759501 65.219002 8.8807497
-12.623856 65.11924 8.8875208
-12.848946 65.28389 8.8595839
-12.763 65.231331 9.1072502
-12.61635 65.122849 9.1357002
-12.849751 65.296333 9.1424999
-12.7645 65.237 9.2614994
-12.648222 65.153336 9.3586397
-12.85175 65.303917 9.3861256
-12.641795 65.159576 9.644598
