# .PCD v0.7 - Point Cloud Data file format
VERSION 0.7
FIELDS x y z
SIZE 4 4 4
TYPE F F F
COUNT 1 1 1
WIDTH 120
HEIGHT 1
VIEWPOINT -18.2321 96.2205 -1.35163 -0.354149 -0.00701479 0.0211809 0.934923
POINTS 120
DATA ascii
11.883583 -25.329292 8.8533754
11.922999 -25.361334 9.0706673
13.292417 -30.288555 9.4071808
13.400005 -30.19306 9.3761139
13.586067 -30.025375 9.366333
12.96225 -29.7705 9.4962502
13.261499 -29.771999 9.4989996
13.673062 -29.941828 9.3550587
13.809582 -29.81144 9.3655872
12.915201 -29.6187 9.4873161
13.13432 -29.639391 9.4913626
13.397389 -29.636961 9.4925833
13.621531 -29.587048 9.4915495
13.899742 -29.652424 9.4169159
14.070142 -29.568947 9.3645973
12.853821 -29.377438 9.4747362
13.132942 -29.365562 9.4761724
13.398913 -29.362143 9.4767723
13.590239 -29.37027 9.47999
13.865901 -29.377983 9.4855824
14.160469 -29.413662 9.4131603
12.865407 -29.118244 9.4619999
13.141101 -29.105165 9.4626837
13.371544 -29.1339 9.4656878
13.651955 -29.14876 9.4698734
13.87029 -29.1017 9.4710302
14.130359 -29.125189 9.4772158
12.881447 -28.878075 9.4487448
13.100125 -28.907143 9.4526424
13.369009 -28.874863 9.4541388
13.633264 -28.87561 9.4570951
13.877501 -28.980099 9.4674997
12.630507 -28.628849 9.4335394
12.848706 -28.622604 9.4355745
13.118403 -28.66654 9.4406691
13.348472 -28.625624 9.4417276
12.633769 -28.381361 9.4201374
12.889974 -28.368662 9.423398
13.160246 -28.371145 9.4263039
13.373445 -28.431089 9.4313669
12.365275 -28.112597 9.405097
12.647741 -28.112856 9.4066019
12.882957 -28.147078 9.4122887
13.080068 -28.14278 9.4153471
12.197838 -27.908173 9.3964176
12.387334 -27.892641 9.3955975
12.612617 -27.887533 9.3963537
12.830315 -27.899462 9.3994017
12.101581 -27.647886 9.3867998
12.349778 -27.635092 9.3857574
12.659595 -27.62369 9.3860579
13.219666 -27.540333 9.3866673
13.376107 -27.617994 9.3903093
12.147902 -27.362944 9.3774691
12.400899 -27.397388 9.3778934
12.640804 -27.351738 9.3763371
12.867966 -27.376644 9.3779354
13.154948 -27.39743 9.3802977
13.374364 -27.346586 9.3798656
12.132861 -27.111082 9.3662891
12.38203 -27.15254 9.3697309
12.631145 -27.104816 9.3681917
12.87533 -27.134459 9.3693542
13.12027 -27.138597 9.3704252
13.309934 -27.118067 9.3703995
11.885301 -26.869963 9.354167
12.134439 -26.863842 9.3541384
12.410827 -26.878254 9.3577623
12.643035 -26.867796 9.3583183
12.877181 -26.863726 9.3587952
13.133512 -26.860762 9.3592348
11.848516 -26.638052 9.3411551
12.148652 -26.614082 9.3415804
12.370612 -26.634726 9.3442011
12.617635 -26.633648 9.3459215
12.868242 -26.608017 9.3464222
13.076786 -26.624372 9.3489008
11.631485 -26.381025 9.3253126
11.899662 -26.348017 9.3267107
12.131024 -26.384888 9.3302202
12.38372 -26.370003 9.3308382
12.636013 -26.3908 9.3330622
12.876529 -26.368729 9.3331165
11.405489 -26.097622 9.3104954
11.610054 -26.133389 9.3135643
11.833653 -26.124067 9.3150425
12.131889 -26.147884 9.3188229
12.366501 -26.116867 9.31847
12.635106 -26.124786 9.3202944
12.82075 -26.172436 9.3226004
11.366232 -25.87232 9.2996445
11.618852 -25.883623 9.3004513
11.868695 -25.87228 9.3036985
12.127897 -25.854319 9.3023252
12.351012 -25.864412 9.3078308
11.385063 -25.618071 9.2871914
11.617445 -25.648378 9.2891407
11.857417 -25.64566 9.29179
12.137053 -25.644915 9.295145
12.390229 -25.633364 9.297905
11.434262 -25.430679 9.2799482
11.637583 -25.370451 9.2772484
11.894803 -25.37145 9.2761097
12.112897 -25.353996 9.2826891
12.358625 -25.381231 9.2873468
11.680667 -25.17767 9.2740002
11.859823 -25.140619 9.2725849
12.147676 -25.119137 9.273612
12.357887 -25.156313 9.2770748
11.9575 -24.990002 9.2687492
13.123485 -30.123636 9.5150633
13.341375 -30.133711 9.5155678
13.5924 -30.046951 9.5202503
12.9825 -29.873501 9.5025005
13.153739 -29.904478 9.505311
13.386139 -29.853868 9.50354
13.634476 -29.874416 9.507678
13.75575 -29.75325 9.5035
13.649249 -29.739502 9.5004997
13.89425 -29.662003 9.5012503
