# .PCD v0.7 - Point Cloud Data file format
VERSION 0.7
FIELDS x y z
SIZE 4 4 4
TYPE F F F
COUNT 1 1 1
WIDTH 187
HEIGHT 1
VIEWPOINT -18.2321 96.2205 -1.35163 -0.354149 -0.00701479 0.0211809 0.934923
POINTS 187
DATA ascii
22.096603 73.790291 29.100208
22.347572 73.82885 29.139875
22.616749 73.836815 29.126968
22.859428 73.845589 29.132624
23.14889 73.855072 29.144196
23.393185 73.862839 29.13203
23.627932 73.871513 29.132805
23.893082 73.878738 29.111429
24.14724 73.888229 29.131687
24.385847 73.894539 29.149055
24.640303 73.900826 29.146059
21.897123 73.559998 29.394001
22.08919 73.805099 29.358334
22.349964 73.84182 29.374319
22.636631 73.851219 29.378643
22.881317 73.858406 29.366703
23.150055 73.866249 29.405306
23.417635 73.872902 29.373434
23.588333 73.879166 29.371668
23.847406 73.88678 29.363655
24.164257 73.896561 29.392113
24.394308 73.90313 29.369001
24.639713 73.913025 29.382597
21.906 73.577698 29.615799
22.096752 73.828857 29.635489
22.338821 73.853394 29.626926
22.669203 73.863159 29.616644
22.892502 73.870667 29.646292
23.160498 73.878876 29.634521
23.39625 73.885246 29.62915
23.62575 73.89296 29.632528
23.87673 73.900986 29.621565
24.078096 73.90522 29.615112
24.332584 73.913918 29.620977
24.651436 73.926079 29.65251
23.446335 73.740334 29.960165
23.564499 73.748001 29.929501
22.103001 73.849442 29.894646
22.363062 73.863464 29.861311
22.641741 73.871063 29.86454
22.893375 73.879562 29.897375
23.134167 73.887436 29.874973
23.409882 73.876297 29.868334
23.596857 73.846367 29.867237
23.842365 73.909592 29.867321
24.1126 73.918739 29.875
24.358311 73.926315 29.859032
24.655752 73.936768 29.899958
23.397497 73.671127 30.111546
23.5858 73.681656 30.079449
22.115902 73.863693 30.133301
22.340759 73.872818 30.116453
22.611542 73.881195 30.103626
22.848156 73.890312 30.135406
23.133614 73.899429 30.160456
23.334101 73.868103 30.130499
23.725 73.899002 30.167999
23.856449 73.920769 30.1325
24.117802 73.929024 30.126949
24.358688 73.938179 30.138458
24.65674 73.947075 30.117739
21.7435 73.352501 30.462
21.823999 73.441002 30.472
23.420723 73.686836 30.341141
23.583834 73.654503 30.281555
22.186001 73.900002 30.455
22.364876 73.884399 30.365656
22.609877 73.891045 30.353003
22.854851 73.899483 30.385851
23.136709 73.911415 30.390249
23.3535 73.858253 30.400917
23.619499 73.850494 30.474998
23.842178 73.931213 30.3785
24.091351 73.938271 30.370901
24.337156 73.947563 30.377798
24.61157 73.953018 30.352369
21.805 73.379745 30.57975
21.946499 73.668503 30.608
23.451332 73.745499 30.604834
23.5 73.741997 30.601
22.125799 73.891998 30.643366
22.355415 73.895844 30.629333
22.611708 73.902962 30.602207
22.850157 73.910477 30.633842
23.113968 73.917801 30.616983
23.355034 73.882065 30.592266
23.626801 73.892097 30.615799
23.837032 73.942505 30.636879
24.106333 73.950447 30.649668
24.365858 73.958389 30.614
24.605915 73.964485 30.630331
21.918072 73.6595 30.866856
23.464249 73.745583 30.802999
22.124626 73.89875 30.888311
22.375937 73.904404 30.858212
22.600414 73.910751 30.872868
22.847607 73.919113 30.873068
23.137722 73.927246 30.849697
23.390072 73.864571 30.870749
23.599751 73.870522 30.863314
23.861973 73.952103 30.876022
24.097918 73.960258 30.891418
24.346292 73.966125 30.79121
24.454601 74.10231 30.935699
21.901335 73.653999 31.082666
22.112877 73.910065 31.096561
22.367626 73.915215 31.134718
22.625 73.924294 31.146715
22.8703 73.931702 31.095301
23.139597 73.939995 31.094818
23.409571 73.833252 31.121798
23.572083 73.84967 31.123417
23.860287 73.961861 31.116821
24.097113 73.973839 31.138891
24.488585 74.067421 31.147833
24.5 74.019997 31.112
24.386562 74.286125 31.131124
22.401438 73.928253 31.4
22.648848 73.936012 31.39514
22.879499 73.941505 31.339298
23.126312 73.950974 31.370321
23.38039 73.875587 31.353167
23.5867 73.881737 31.374933
23.840063 73.971329 31.363321
24.095062 73.98642 31.403065
24.487249 74.070374 31.412001
24.378048 74.306168 31.349808
22.416666 73.937164 31.581331
22.644903 73.945396 31.598722
22.901415 73.955467 31.647333
23.142138 73.96347 31.650085
23.407084 73.860924 31.620893
23.56275 73.855232 31.623468
23.841686 73.984238 31.636854
24.055222 73.990669 31.645777
24.1465 74.008667 31.652166
24.474998 74.122337 31.650331
24.397299 74.315758 31.633392
22.704584 73.951332 31.751835
22.855331 73.967957 31.902128
23.141945 73.97496 31.894693
23.394209 73.900856 31.881653
23.602428 73.907753 31.862247
23.8785 73.995163 31.845715
24.0235 73.9935 31.841999
23.873499 74.001251 31.917999
24.108751 74.01413 31.903624
24.42775 74.119003 31.81975
22.732876 73.979004 32.199623
22.870584 73.978157 32.119503
23.115381 73.98838 32.155643
23.349501 73.948524 32.118069
23.570374 73.899208 32.085461
23.672249 74.005409 32.160419
23.855249 74.0065 32.103874
24.111851 74.028786 32.128136
24.377958 74.328667 32.130749
22.635612 73.981133 32.360676
22.917049 73.988403 32.374653
23.108582 73.997673 32.391251
23.394457 73.885872 32.351707
23.506668 73.811668 32.37067
23.049 74 32.457001
23.326866 74.005508 32.389633
23.698959 74.014801 32.40292
23.87286 74.018478 32.339512
24.098867 74.038971 32.370068
22.646894 73.993042 32.62376
22.872557 73.996559 32.571224
23.564901 73.877396 32.638199
22.745335 74.00634 32.747002
22.93185 74.004555 32.641201
23.709665 74.026665 32.641167
24.130709 74.04866 32.659832
24.374683 74.162079 32.632965
24.387625 74.389 32.53875
22.592001 73.99617 32.807499
22.666 74.004601 32.918198
22.89575 74.011002 32.863449
24.150267 74.049797 32.892319
24.382885 74.07132 32.869785
22.639811 74.014526 33.133499
22.897202 74.023155 33.124287
24.125452 74.063286 33.129787
24.370834 74.071892 33.136555
24.148888 74.075043 33.381931
24.383387 74.083862 33.369724
