# .PCD v0.7 - Point Cloud Data file format
VERSION 0.7
FIELDS x y z
SIZE 4 4 4
TYPE F F F
COUNT 1 1 1
WIDTH 197
HEIGHT 1
VIEWPOINT -18.2321 96.2205 -1.35163 -0.354149 -0.00701479 0.0211809 0.934923
POINTS 197
DATA ascii
-39.55267 -111.04501 8.8596659
-39.372833 -110.94934 8.9244995
-39.546997 -111.03125 9.0852499
-39.378166 -110.92684 9.156333
-40.355 -110.375 9.1373329
-40.203251 -110.29025 9.0967503
-39.757999 -111.011 9.2854996
-39.601501 -111.0585 9.276
-39.115311 -111.14944 9.3865013
-39.577999 -110.78666 9.3713331
-39.402763 -110.90663 9.3735332
-40.061001 -110.535 9.2799997
-39.832584 -110.61649 9.3685837
-39.665665 -110.71333 9.3973341
-40.104248 -110.36213 9.3587503
-39.960251 -110.4745 9.4022503
-40.501999 -110.05251 9.323
-40.358593 -110.16227 9.3572044
-40.648445 -109.936 9.3425007
-38.871185 -111.33575 9.6486254
-39.13047 -111.13043 9.6131878
-39.55225 -110.794 9.6079998
-39.393333 -110.9017 9.6519728
-39.803669 -110.5933 9.6467228
-39.651001 -110.71413 9.6120005
-40.089336 -110.35433 9.6018343
-39.9585 -110.471 9.5885
-40.35268 -110.15436 9.603714
-40.224998 -110.242 9.6494999
-40.632584 -109.93366 9.5986662
-38.873569 -111.32558 9.8550005
-39.292 -111.0605 9.8950005
-39.143814 -111.12644 9.8503752
-39.6063 -110.8289 9.8753996
-39.378208 -110.90909 9.8970003
-40.066002 -110.553 9.941
-39.84433 -110.612 9.882
-39.647999 -110.7065 9.7975006
-40.348999 -110.363 9.9610004
-40.116669 -110.34767 9.8448887
-39.956501 -110.46625 9.81425
-40.366413 -110.13842 9.814167
-40.636501 -109.92524 9.7959166
-39.538498 -111.0105 10.1405
-39.535 -111 10.013
-39.368164 -110.90301 10.146167
-40.344334 -110.3505 10.139833
-40.183704 -110.26289 10.1251
-39.529335 -110.986 10.344666
-39.372253 -110.88538 10.382626
-40.334499 -110.3255 10.413
-40.147999 -110.254 10.328
-40.201378 -110.2355 10.375875
-38.780998 -111.59332 10.662666
-38.966999 -111.372 10.748
-38.569 -111.498 10.733
-39.366001 -111.021 10.737
-39.578251 -110.93913 10.646
-39.366203 -110.87661 10.624201
-40.049999 -110.512 10.684
-39.877998 -110.65725 10.718875
-40.338001 -110.29234 10.614667
-40.149334 -110.35067 10.696334
-40.61425 -110.06525 10.6925
-40.466 -110.185 10.682
-40.188335 -110.21983 10.6025
-38.77425 -111.57475 10.88925
-38.686337 -111.57433 10.840333
-39.039001 -111.3475 10.7935
-38.885498 -111.44 10.805833
-38.567253 -111.49325 10.91925
-39.306 -111.105 10.77
-39.184502 -111.20325 10.76125
-39.566284 -110.91428 10.833499
-39.35125 -110.87967 10.916584
-40.049 -110.51 10.764
-39.912998 -110.614 10.762
-40.364296 -110.28201 10.875899
-40.123001 -110.459 10.762
-40.595001 -110.076 10.75
-40.464001 -110.18 10.764
-40.178398 -110.20909 10.8587
-38.564335 -111.48566 11.147334
-39.411167 -110.8655 11.09
-40.36412 -110.28237 11.086375
-40.162498 -110.21049 11.1352
-40.360668 -110.27517 11.354333
-40.152 -110.272 11.323
-40.197334 -110.17533 11.334999
-40.304001 -110.25 11.852
-40.366333 -110.25167 12.04
-40.268501 -110.155 12.131001
-40.186665 -110.151 12.159667
-39.558998 -110.827 12.325
-39.400902 -110.78821 12.3897
-40.100002 -110.39967 12.493333
-40.57 -110.018 12.478
-40.361893 -110.16156 12.39111
-40.182251 -110.14125 12.38575
-40.806 -109.829 12.474501
-40.665001 -109.9185 12.4835
-40.9795 -109.56187 12.380125
-38.783501 -111.311 12.627251
-39.068501 -111.06275 12.623875
-38.908123 -111.19263 12.65275
-39.650002 -110.847 12.506
-39.358585 -110.80926 12.606167
-39.199169 -110.947 12.658333
-39.857002 -110.59 12.509501
-39.616837 -110.617 12.622445
-39.438999 -110.746 12.682
-40.050663 -110.27033 12.644668
-39.873943 -110.41762 12.634666
-40.313499 -110.06001 12.62225
-40.176624 -110.15376 12.66125
-40.618599 -109.8195 12.6215
-40.430603 -109.96641 12.6672
-41.131798 -109.5381 12.6159
-40.856998 -109.62981 12.619048
-40.726501 -109.736 12.585501
-40.986 -109.4975 12.6425
-38.751999 -111.286 12.8505
-38.636608 -111.38617 12.898472
-39.060249 -111.041 12.911875
-38.891167 -111.17649 12.910999
-39.326302 -110.82479 12.8822
-39.201599 -110.93001 12.897901
-39.64257 -110.58032 12.889715
-39.433998 -110.7345 12.90925
-40.046749 -110.261 12.91275
-39.842476 -110.42448 12.877238
-40.318748 -110.04425 12.9185
-40.1847 -110.14168 12.877566
-40.594601 -109.82664 12.88255
-40.421124 -109.96425 12.89725
-40.869125 -109.609 12.868625
-40.721836 -109.724 12.859166
-40.984333 -109.494 12.848332
-38.648335 -111.40139 13.143389
-39.27 -111.018 13.17
-39.103333 -111.04617 13.121833
-38.8895 -111.17416 13.0985
-39.553001 -110.818 13.195499
-39.354401 -110.8075 13.117
-39.191498 -110.929 13.0725
-39.847 -110.567 13.1685
-39.647831 -110.61883 13.092416
-39.431999 -110.73 13.0955
-40.077 -110.34225 13.129749
-39.846775 -110.41361 13.052501
-40.563999 -110.007 13.141
-40.376331 -110.11967 13.127334
-40.205334 -110.11642 13.152835
-40.799 -109.814 13.134
-40.611004 -109.856 13.077834
-40.419998 -109.963 13.063
-40.895203 -109.6415 13.068899
-40.717999 -109.716 13.038
-40.980003 -109.484 13.0955
-39.565502 -110.8535 13.3865
-39.374626 -110.75825 13.360499
-39.432999 -110.736 13.469
-40.379837 -110.21183 13.3465
-40.207001 -110.10463 13.401625
-40.974998 -109.473 13.341001
-38.817001 -111.479 13.705999
-38.6604 -111.416 13.647601
-39.561333 -110.84299 13.656001
-39.349998 -110.754 13.531
-39.406998 -110.72637 13.6385
-40.372665 -110.19534 13.662333
-40.198166 -110.0825 13.648
-39.002998 -111.266 13.905
-38.802376 -111.40376 13.927376
-38.632248 -111.37424 13.883249
-39.116276 -111.11478 13.936722
-38.955498 -111.244 13.9825
-39.546337 -110.80233 13.900666
-39.333801 -110.9036 13.9186
-39.803833 -110.59917 13.9055
-39.674 -110.67937 13.944125
-39.395 -110.7145 13.861333
-38.582336 -111.55767 14.153999
-38.808331 -111.457 14.163666
-38.655167 -111.379 14.142333
-39.578598 -110.8018 14.172999
-39.259998 -110.996 14
-39.378624 -110.71213 14.08875
-38.787334 -111.43817 14.409
-38.631168 -111.35333 14.391335
-39.583332 -110.79317 14.406669
-39.348999 -110.757 14.28
-39.392624 -110.691 14.361876
-38.780666 -111.4215 14.6575
-39.595501 -110.7695 14.636001
-39.521 -110.737 14.684
-39.404999 -110.66683 14.639834
