# .PCD v0.7 - Point Cloud Data file format
VERSION 0.7
FIELDS x y z
SIZE 4 4 4
TYPE F F F
COUNT 1 1 1
WIDTH 102
HEIGHT 1
VIEWPOINT -18.2321 96.2205 -1.35163 -0.354149 -0.00701479 0.0211809 0.934923
POINTS 102
DATA ascii
-31.865282 65.962067 -2.363677
-31.619801 65.975464 -2.3558002
-32.29628 65.948662 -2.1372223
-32.124332 65.959175 -2.1176805
-31.831678 65.974899 -2.1176074
-31.605663 65.984581 -2.1331668
-31.414301 65.994797 -2.1670001
-31.308456 66.003265 -2.1130693
-32.139126 65.981544 -1.9280834
-31.922056 65.991364 -1.9235277
-31.642166 65.993416 -1.9381666
-32.257 66.072998 -1.77
-32.135502 66.063431 -1.8118665
-31.857714 66.063148 -1.8396426
-31.626177 66.07415 -1.850463
-31.362053 66.060051 -1.8711944
-33.128292 66.070412 -1.6517916
-32.908001 66.096169 -1.5464998
-32.33255 66.12365 -1.60585
-32.129761 66.125534 -1.6457502
-31.913 66.135185 -1.6375279
-31.645042 66.147377 -1.6059585
-31.420349 66.153999 -1.6203501
-31.001499 66.18 -1.556
-30.908062 66.181877 -1.6059375
-33.086201 66.089195 -1.3763499
-32.878799 66.099556 -1.3766481
-32.359081 66.123123 -1.3966666
-32.084377 66.135559 -1.3877499
-31.854284 66.149612 -1.3520001
-31.630875 66.15667 -1.38475
-31.422352 66.166794 -1.3715166
-31.006166 66.189835 -1.3528333
-30.858948 66.195557 -1.3545104
-30.688437 66.199623 -1.3979375
-33.109486 66.099846 -1.1278095
-32.841625 66.111465 -1.1286561
-32.623585 66.124832 -1.0665833
-32.34972 66.135376 -1.1242501
-32.089359 66.146324 -1.1401806
-31.869965 66.15654 -1.115
-31.577801 66.170204 -1.1376333
-31.397999 66.179649 -1.13265
-31.01 66.19883 -1.0801667
-30.876808 66.203217 -1.1334722
-30.647085 66.214577 -1.1419166
-33.167534 66.106934 -0.87606251
-32.863209 66.121773 -0.86379164
-32.598373 66.132935 -0.88968754
-32.343548 66.145683 -0.8717857
-32.10675 66.158554 -0.87399995
-31.873606 66.168144 -0.86532295
-31.5825 66.180344 -0.88190001
-31.389879 66.193741 -0.87597615
-31.015751 66.210999 -0.89375001
-30.863083 66.215126 -0.89383334
-33.100651 66.119049 -0.62364995
-32.854443 66.130974 -0.64038891
-32.623299 66.141647 -0.6351667
-32.361679 66.154671 -0.62972915
-32.087135 66.166969 -0.63506669
-31.847416 66.178604 -0.62808329
-31.6096 66.189049 -0.63330001
-31.393726 66.201904 -0.63095242
-31.018166 66.217171 -0.639
-30.849443 66.226585 -0.64216667
-30.656584 66.236 -0.63291663
-33.150242 66.130478 -0.3565625
-32.859001 66.143791 -0.35424998
-32.655895 66.150642 -0.38675001
-32.369881 66.166283 -0.37328571
-32.139999 66.178246 -0.34962499
-31.865368 66.188095 -0.38217857
-31.613489 66.201271 -0.37046877
-31.396637 66.215538 -0.35044444
-31.049625 66.228127 -0.38075
-30.851925 66.23909 -0.34815744
-30.660501 66.245125 -0.37825
-33.151146 66.141037 -0.12103571
-32.881054 66.153694 -0.13813889
-32.623837 66.16571 -0.12212501
-32.390999 66.176186 -0.113875
-32.156124 66.1875 -0.10604167
-31.878103 66.200043 -0.11657143
-31.666906 66.209091 -0.1264375
-31.39975 66.225128 -0.1136875
-31.049583 66.234253 -0.14549999
-30.905748 66.246086 -0.11425
-30.832001 66.251251 -0.040750001
-30.698151 66.255203 -0.14238334
-33.142822 66.148392 0.11203571
-32.901062 66.160812 0.1018125
-32.646626 66.17115 0.12722917
-32.373608 66.183083 0.12914287
-32.105011 66.198051 0.1225625
-31.867823 66.210945 0.14297618
-31.639292 66.216835 0.12787499
-31.422689 66.229317 0.119125
-31.059805 66.243721 0.133
-30.865917 66.258568 0.11045001
-30.688688 66.261688 0.10675
-33.157547 66.109024 0.35981482
