# .PCD v0.7 - Point Cloud Data file format
VERSION 0.7
FIELDS x y z
SIZE 4 4 4
TYPE F F F
COUNT 1 1 1
WIDTH 167
HEIGHT 1
VIEWPOINT -18.2321 96.2205 -1.35163 -0.354149 -0.00701479 0.0211809 0.934923
POINTS 167
DATA ascii
-49.372669 11.956055 18.747721
-49.178337 11.946001 18.749668
-48.538338 11.969 18.746666
-49.366402 12.123967 18.739399
-49.132381 12.10869 18.742477
-48.874836 12.088 18.743332
-48.577 12.1135 18.743999
-49.328999 12.385 18.722
-49.141674 12.402584 18.727057
-48.868263 12.36811 18.734869
-48.749252 12.347751 18.74575
-48.369602 12.394 18.733
-49.137558 12.642111 18.716722
-48.889771 12.627467 18.719166
-48.652287 12.633613 18.7321
-48.357635 12.629667 18.725367
-49.087334 12.903467 18.704268
-48.872295 12.820633 18.7103
-48.644749 12.81925 18.714748
-48.619999 13.481501 18.683498
-48.41925 13.452 18.687168
-48.05825 13.4145 18.69025
-47.900433 13.3772 18.681967
-49.203003 13.747499 18.67025
-48.816113 13.591667 18.674444
-48.61021 13.642477 18.674381
-48.37632 13.615081 18.69586
-48.027557 13.623279 18.683834
-47.860199 13.6008 18.6828
-49.853664 13.8765 18.657145
-49.611168 13.875834 18.6562
-49.372952 13.846477 18.660288
-49.141418 13.919417 18.658585
-48.774334 13.856667 18.658667
-48.657169 13.867167 18.663767
-48.343689 13.864023 18.690348
-48.156525 13.86315 18.69385
-47.840504 13.830734 18.6714
-50.359383 14.118619 18.641476
-50.109802 14.121966 18.641134
-49.856304 14.132668 18.642944
-49.619976 14.11475 18.644667
-49.377022 14.135 18.646187
-49.126869 14.127719 18.647974
-48.597404 14.1112 18.6551
-48.383915 14.147457 18.654917
-48.139812 14.160083 18.683937
-47.833664 14.13089 18.663223
-47.677998 14.141807 18.660416
-50.397247 14.29325 18.657251
-50.125031 14.363322 18.631762
-49.887295 14.341625 18.633793
-49.644356 14.350715 18.635859
-49.358711 14.393667 18.636126
-49.107857 14.388548 18.638691
-48.918835 14.430167 18.640665
-48.582043 14.354168 18.643291
-48.378681 14.376931 18.645111
-48.103668 14.354925 18.685818
-50.101128 14.66025 18.620874
-49.87397 14.633734 18.621399
-49.634251 14.599388 18.623501
-49.373608 14.65694 18.622063
-49.127502 14.610833 18.627529
-48.920502 14.604584 18.630251
-50.109032 14.875532 18.622366
-49.87376 14.876073 18.607975
-49.640827 14.843977 18.613644
-49.430557 14.884334 18.630445
-47.873287 15.356939 18.623259
-47.686966 15.407048 18.642021
-47.374222 15.430167 18.620085
-47.17944 15.343938 18.610188
-49.112946 15.693611 18.57889
-48.621983 15.643488 18.587286
-48.486252 15.62 18.591249
-48.089485 15.62575 18.592068
-47.869019 15.632259 18.622314
-47.647575 15.614964 18.617926
-47.338165 15.572999 18.6145
-47.119167 15.619228 18.591541
-49.385284 15.853667 18.566477
-49.124119 15.860666 18.570356
-48.903805 15.849472 18.574278
-48.665501 15.874786 18.575857
-48.432583 15.868126 18.578583
-48.044998 15.82 18.58
-47.861446 15.925555 18.579721
-47.608681 15.90531 18.605261
-47.405281 15.848929 18.612642
-47.139893 15.889111 18.589361
-49.580734 16.129969 18.556599
-49.371929 16.118715 18.556143
-49.119469 16.097301 18.558903
-48.872536 16.125599 18.561666
-48.62846 16.14575 18.563251
-48.375069 16.158133 18.565502
-47.869221 16.109667 18.570028
-47.590073 16.140388 18.590435
-49.508999 16.422001 18.545
-49.404278 16.431278 18.544443
-49.135998 16.377642 18.548048
-48.891209 16.380182 18.549833
-48.625481 16.388483 18.551468
-48.366299 16.370584 18.554548
-48.199665 16.397167 18.556
-49.365147 16.64098 18.53373
-49.134037 16.596169 18.537567
-48.869869 16.637241 18.539444
-49.8489 9.6170378 18.890181
-49.71236 9.6636944 18.885056
-49.878803 9.881917 18.843168
-49.664646 9.8821669 18.871464
-49.346962 9.8688755 18.844709
-49.14875 9.8744164 18.831125
-50.075249 10.085125 18.829874
-49.896767 10.136833 18.829033
-49.629467 10.132467 18.848867
-49.431999 10.118 18.788
-49.120754 10.168112 18.824999
-50.065002 10.357445 18.815943
-49.860615 10.368945 18.819111
-49.599915 10.379976 18.850546
-49.398544 10.327542 18.828751
-49.117001 10.392833 18.817833
-50.027336 10.533667 18.808001
-49.867577 10.650214 18.805191
-49.638485 10.642584 18.807543
-49.38763 10.635834 18.835104
-49.061543 10.609209 18.803541
-48.895527 10.627715 18.797571
-49.830803 10.8694 18.788799
-49.617085 10.945499 18.792
-49.352539 10.919687 18.821146
-49.184628 10.889625 18.820375
-48.884155 10.864066 18.794186
-49.751335 11.057667 18.786001
-49.631645 11.105263 18.812679
-49.360359 11.119406 18.796717
-49.182419 11.143176 18.814491
-48.873169 11.116644 18.789715
-49.589031 11.343555 18.774862
-49.371136 11.371901 18.774868
-49.152084 11.367967 18.810047
-48.811752 11.34 18.775
-48.637428 11.334832 18.764593
-49.559254 11.608334 18.762417
-49.416237 11.6483 18.801832
-49.110847 11.621817 18.789667
-48.961304 11.643556 18.796804
-48.646431 11.621358 18.763523
-49.368191 11.800333 18.753815
-49.108807 11.836583 18.767389
-48.907364 11.887271 18.78627
-48.58675 11.849499 18.75375
-48.891876 12.078833 18.806
-48.817837 12.374333 18.812778
-48.684498 12.349167 18.782
-48.862 12.593 18.819
-48.733498 12.596874 18.7855
-48.650558 12.793722 18.754972
-48.427776 13.467221 18.775
-48.364124 13.609875 18.756874
-48.433998 14.1985 18.816999
-48.175999 14.085 18.756001
-48.019001 15.511 18.784
-47.935001 15.819 18.780001
