# .PCD v0.7 - Point Cloud Data file format
VERSION 0.7
FIELDS x y z
SIZE 4 4 4
TYPE F F F
COUNT 1 1 1
WIDTH 141
HEIGHT 1
VIEWPOINT -18.2321 96.2205 -1.35163 -0.354149 -0.00701479 0.0211809 0.934923
POINTS 141
DATA ascii
-48.337597 -0.79277831 -1.3642606
-48.231251 -0.81800002 -1.48125
-48.528 -0.662 -1.332
-48.412888 -0.64098454 -1.3617623
-48.504753 -0.42300001 -1.4007499
-48.427681 -0.47268575 -1.3842214
-48.320129 -0.81932586 -1.1444851
-48.412861 -0.60952151 -1.1283667
-48.501499 -0.42300001 -1.2145
-48.481209 -0.45983332 -1.1006806
-48.322079 -0.80226105 -0.87051105
-48.405472 -0.61933488 -0.85846895
-48.505501 -0.38699999 -0.833
-48.480446 -0.45761111 -0.89983338
-48.326225 -0.78659999 -0.63131112
-48.405968 -0.60802776 -0.60661113
-48.506779 -0.38699999 -0.64744443
-48.476517 -0.457037 -0.64588886
-48.318695 -0.79341668 -0.38840279
-48.408195 -0.59793329 -0.37413335
-48.504833 -0.38700002 -0.39333332
-48.472836 -0.45694444 -0.39205557
-48.396042 -0.61799997 -0.12962222
-48.506428 -0.37215003 -0.15241668
-48.482391 -0.42793888 -0.11623891
-48.622234 -1.1587601 0.085513338
-48.410831 -1.0543333 0.10877779
-48.398083 -0.60766661 0.10272223
-48.510616 -0.35675001 0.14130557
-48.48317 -0.42183334 0.11341666
-48.303539 -0.87146991 0.38841665
-48.244919 -0.94508332 0.38633335
-48.395298 -0.60376871 0.37023243
-48.508499 -0.35400003 0.39666668
-48.480114 -0.42229167 0.3412292
-48.296417 -0.88957876 0.64019912
-48.394974 -0.59759128 0.61068648
-48.509872 -0.34125 0.60616672
-48.475296 -0.42133331 0.63925928
-48.29977 -0.87577683 0.89563453
-48.392376 -0.59656483 0.857108
-48.510448 -0.33750001 0.8568334
-48.47303 -0.42133334 0.89308333
-48.46117 -1.0321667 1.1008333
-48.3102 -0.87909371 1.1599908
-48.244835 -0.92799997 1.0961667
-48.37038 -0.63574743 1.1298335
-48.511776 -0.33160001 1.1076751
-48.467098 -0.42424002 1.1291645
-48.647518 -1.1072953 1.3807905
-48.490112 -1.033 1.3438889
-48.322388 -0.90780002 1.4004668
-48.37495 -0.61661828 1.3650255
-48.5154 -0.30840001 1.3755333
-48.47205 -0.40541777 1.3733311
-48.610317 -1.0769833 1.6159832
-48.331108 -0.90266663 1.5969321
-48.371384 -0.61512733 1.6316262
-48.515976 -0.30300006 1.64925
-48.469353 -0.40562668 1.6325734
-48.336079 -0.89183331 1.8571736
-48.360405 -0.63692725 1.8782828
-48.513916 -0.30300003 1.8890834
-48.459614 -0.42224446 1.8732889
-48.650349 -1.0714815 2.1408517
-48.508087 -0.99900001 2.1919167
-48.344803 -0.89298767 2.1256218
-48.370628 -0.60943669 2.1266234
-48.513386 -0.2977778 2.1399724
-48.461155 -0.41361114 2.1058474
-48.634003 -1.0495667 2.3671112
-48.529671 -0.99933338 2.3878334
-48.34206 -0.87874782 2.3670473
-48.355927 -0.63541663 2.3712554
-48.516003 -0.28700003 2.378
-48.460678 -0.40707144 2.3538187
-48.672718 -1.059 2.5909166
-48.54628 -0.99483329 2.6436112
-48.335812 -0.86523056 2.6470249
-48.360397 -0.62122226 2.6039445
-48.513168 -0.28300002 2.6229999
-48.458374 -0.40676162 2.642287
-48.653538 -1.0377408 2.8532224
-48.519501 -0.9691667 2.8956666
-48.334732 -0.85831255 2.8906791
-48.358227 -0.61925 2.8610764
-48.517803 -0.25809526 2.89977
-48.456165 -0.40616667 2.8959167
-48.640305 -1.0170584 3.1274168
-48.543671 -0.97000003 3.1018333
-48.334 -0.84958333 3.1442358
-48.343903 -0.64388496 3.1112621
-48.51767 -0.25349998 3.100111
-48.44791 -0.41651112 3.1288667
-48.679836 -1.0210834 3.3983335
-48.553417 -0.96152782 3.3615558
-48.367382 -0.85800058 3.378041
-48.342892 -0.63856256 3.3617673
-48.516998 -0.25392589 3.355037
-48.454533 -0.3971861 3.3700223
-48.691002 -1.0181334 3.6219335
-48.573292 -0.95610005 3.6550112
-48.343151 -0.82644093 3.6129563
-48.344692 -0.62605363 3.6414146
-48.467781 -0.35559025 3.639632
-48.696217 -1.005 3.9090557
-48.593422 -0.95458335 3.8913336
-48.366844 -0.83617502 3.8686125
-48.348972 -0.60947222 3.8902497
-48.447708 -0.39329758 3.8864527
-48.715668 -1.0055001 4.1048336
-48.578999 -0.93666673 4.1285558
-48.374939 -0.8296361 4.129086
-48.344925 -0.60988891 4.1446109
-48.445797 -0.39044949 4.1409483
-48.523094 -0.21867335 4.1275473
-48.734669 -1.0066667 4.3518891
-48.60297 -0.9375 4.3526111
-48.361862 -0.81253576 4.3766351
-48.323593 -0.64575928 4.4220166
-48.438286 -0.39992586 4.3828788
-48.634827 -0.93940735 4.6245279
-48.391464 -0.82194448 4.64395
-48.313553 -0.66238689 4.6059108
-48.431744 -0.40710777 4.625958
-48.607582 -0.91469991 4.8755503
-48.400421 -0.8145833 4.9040837
-48.313793 -0.6616891 4.8588052
-48.441868 -0.37735137 4.8708711
-48.630817 -0.91682953 5.1202221
-48.408966 -0.80702227 5.1444669
-48.304859 -0.66376662 5.1286974
-48.434658 -0.38461387 5.117631
-48.645348 -0.9099285 5.3857265
-48.414051 -0.79888099 5.3835716
-48.3106 -0.64873004 5.3635101
-48.431374 -0.3864446 5.3598242
-48.661835 -0.90681255 5.6367507
-48.403149 -0.78221333 5.6280136
-48.435268 -0.36777323 5.6332312
-48.517639 -0.19097224 5.6155281
