# .PCD v0.7 - Point Cloud Data file format
VERSION 0.7
FIELDS x y z
SIZE 4 4 4
TYPE F F F
COUNT 1 1 1
WIDTH 88
HEIGHT 1
VIEWPOINT -18.2321 96.2205 -1.35163 -0.354149 -0.00701479 0.0211809 0.934923
POINTS 88
DATA ascii
99.922501 -70.628006 16.2705
99.895996 -70.434998 16.607
99.942497 -70.3825 16.880249
99.975502 -70.160248 16.90575
99.943825 -70.914673 17.112
100.039 -70.706001 17.163
99.93 -70.317329 17.144333
100.023 -70.271004 17.138
99.978996 -70.238998 17.218
100.016 -70.056999 17.040001
100.02501 -69.859001 17.054249
100.007 -69.742996 17.121
99.940666 -70.894661 17.356001
100.018 -70.804001 17.42
100.039 -70.503998 17.326
100.003 -70.476997 17.493
99.979752 -70.238998 17.414249
100.0455 -70.129501 17.4755
100.0375 -69.966499 17.3405
99.959007 -70.823158 17.615334
100.028 -70.809998 17.599001
100.015 -70.575996 17.5
100.003 -70.366997 17.504
99.939995 -70.209999 17.646002
100.03133 -70.136665 17.616333
100.0688 -69.888 17.613201
100.1045 -69.699501 17.639999
100.049 -71.022003 17.91
99.96167 -70.80883 17.859165
100.038 -70.703003 17.774
99.984497 -70.189499 17.862499
100.0205 -70.164001 17.902
100.07367 -69.923996 17.908667
100.105 -69.698997 17.989
99.983505 -70.823502 18.081501
100.011 -70.994003 18.077
99.943497 -70.748497 18.1495
100.04433 -70.668671 18.148666
100.0525 -70.455002 18.118
99.965332 -70.123665 18.154333
100.043 -70.070999 18.174999
100.06333 -69.881004 18.170666
100.12151 -69.662003 18.195
99.925331 -70.734673 18.364668
100.01233 -70.682335 18.379333
99.951004 -70.112999 18.368999
100.03367 -70.064003 18.347666
100.095 -69.799004 18.354
100.027 -69.642998 18.323
99.949669 -70.694168 18.630667
99.963753 -70.081001 18.580873
100.006 -70.043999 18.691
100.088 -69.793999 18.614
99.958755 -70.642258 18.915001
100.018 -70.572998 18.812
100.021 -70.374664 18.805
99.940498 -70.08567 18.847
100 -70.038498 18.865
100.05975 -69.849998 18.82375
99.945671 -70.632668 19.153
99.946777 -70.059273 19.136278
99.995003 -69.831001 19.111
100.0425 -69.759499 19.172001
99.931 -70.620499 19.390751
99.968002 -70.445999 19.495001
99.943497 -70.0812 19.421701
100 -69.834 19.374001
100.04366 -69.654999 19.366999
99.932335 -70.583672 19.586
99.877998 -70.056335 19.619333
100.012 -70.044998 19.565001
99.989998 -69.924004 19.552999
100.088 -69.893997 19.652
99.921333 -70.612335 19.849333
99.691002 -70.249001 19.791
99.896996 -70.068329 19.885
99.954002 -69.799004 19.976
100.008 -69.624001 19.798
99.874001 -70.369003 20.182335
99.862396 -70.104797 20.135
99.871498 -69.891502 20.143501
99.806503 -70.105499 20.368
99.814621 -70.112503 20.644001
99.786659 -70.340332 20.861668
99.728333 -70.160667 20.857334
99.797501 -70.097 20.8915
99.710335 -70.367668 21.129333
99.693001 -70.287498 21.282
