# .PCD v0.7 - Point Cloud Data file format
VERSION 0.7
FIELDS x y z
SIZE 4 4 4
TYPE F F F
COUNT 1 1 1
WIDTH 116
HEIGHT 1
VIEWPOINT -18.2321 96.2205 -1.35163 -0.354149 -0.00701479 0.0211809 0.934923
POINTS 116
DATA ascii
-45.349976 3.8496666 -1.356357
-45.653072 3.9716904 -1.120869
-45.378761 3.870357 -1.1250714
-45.802101 4.0345001 -1.1221
-45.647308 3.9790001 -0.8876667
-45.400333 3.8881669 -0.90075004
-45.782333 4.0326672 -0.85533333
-45.576836 3.9640999 -0.63494998
-45.358231 3.8848541 -0.63370836
-45.751003 4.0300002 -0.66266668
-45.734997 4.0289998 -0.55049998
-45.581871 3.9765 -0.40525001
-45.375286 3.9019885 -0.38588095
-45.811447 4.0688329 -0.34588888
-45.715836 4.0273333 -0.38966668
-45.568665 3.9840002 -0.15233333
-45.391331 3.9190557 -0.14445834
-45.786499 4.0666666 -0.10000001
-45.696625 4.0297918 -0.16958334
-45.520721 3.9794998 0.14055555
-45.34531 3.9150836 0.13254167
-45.788292 4.0827503 0.14404167
-45.670887 4.0345554 0.13911112
-45.404282 3.9476252 0.37347224
-45.808544 4.1003752 0.40429169
-45.644276 4.0353456 0.38141665
-45.379166 3.950778 0.64794445
-45.785995 4.0980835 0.62475002
-45.609173 4.0345559 0.6503889
-45.352398 3.9515998 0.8976
-45.127003 3.8684833 0.86563337
-45.825748 4.1340837 0.90358335
-45.628555 4.0522223 0.89050007
-45.493999 4.0079999 0.99800003
-45.33292 3.9551668 1.1293335
-45.809113 4.1324444 1.1252222
-45.641666 4.066834 1.0937779
-45.472168 4.0059171 1.1174167
-45.284748 3.9667499 1.405
-45.124855 3.9040475 1.3768045
-45.774448 4.1291113 1.36
-45.609833 4.0667777 1.353889
-45.432781 4.0026107 1.3475002
-45.316669 3.9717779 1.6283334
-45.098598 3.8788018 1.6030416
-45.823227 4.1655555 1.6494446
-45.634315 4.0886669 1.6273541
-45.447418 4.0202708 1.6395416
-45.315533 3.9799333 1.8325332
-45.800335 4.1630559 1.899889
-45.640362 4.1006665 1.8649583
-45.466331 4.0378332 1.9086667
-45.304398 3.9907708 2.1463542
-45.102924 3.8981864 2.0899928
-45.76767 4.1602917 2.1050835
-45.585934 4.0926666 2.1341336
-45.424114 4.0339999 2.1454446
-45.268002 3.9873333 2.4070001
-45.077682 3.8974199 2.3527162
-45.818832 4.1949997 2.4063334
-45.65176 4.1265955 2.3466191
-45.4245 4.0454793 2.4045417
-45.104313 3.9182215 2.6353545
-45.790501 4.1923337 2.6410556
-45.655186 4.1388998 2.5897834
-45.391205 4.0432005 2.6348
-45.094402 3.9217532 2.8753731
-45.761333 4.1893339 2.8376665
-45.616344 4.1363931 2.869417
-45.36797 4.0455837 2.8811672
-45.072716 3.9118128 3.1471086
-45.918999 4.2399998 3.1594999
-45.638763 4.1559525 3.1322861
-45.383476 4.0609288 3.1145837
-45.805874 4.2288752 3.3579168
-45.633621 4.1649165 3.3686833
-45.376503 4.0688572 3.3516667
-45.226669 4.0150003 3.3925002
-45.765335 4.2248335 3.5926666
-45.569172 4.1527004 3.6270833
-45.345703 4.0702262 3.6414285
-45.19405 4.011889 3.5865555
-45.861336 4.2666254 3.6927919
-45.650932 4.1935716 3.8541312
-45.41235 4.1044998 3.8684304
-45.181503 4.0182505 3.8748333
-45.82917 4.2635002 3.9085
-45.644775 4.201056 4.1129165
-45.37952 4.1031504 4.1345835
-45.179516 4.0281668 4.1186996
-45.806332 4.2680006 4.171833
-45.568951 4.1840334 4.3669
-45.364643 4.1080713 4.3777618
-45.142498 4.0248003 4.3417001
-45.814667 4.2805557 4.3725553
-45.735252 4.2535 4.4495001
-45.607166 4.2083335 4.6166663
-45.380116 4.124896 4.6344795
-45.139893 4.0361114 4.6447778
-45.817139 4.2903333 4.6521945
-45.720169 4.2521667 4.6101665
-45.615734 4.2220001 4.8687334
-45.37973 4.1358957 4.89925
-45.16367 4.0559049 4.8744521
-45.810226 4.3004446 4.9334445
-45.727749 4.2597499 4.7632499
-45.573444 4.2184525 5.1493096
-45.351246 4.1353612 5.1177497
-45.102573 4.0443668 5.1307168
-45.822556 4.3128891 5.0865555
-45.736671 4.2810001 5.1898336
-45.599838 4.2388334 5.4064999
-45.402542 4.1649723 5.356236
-45.134148 4.0655951 5.3834882
-45.826336 4.3243337 5.3474445
-45.702873 4.2777081 5.4050417
