# .PCD v0.7 - Point Cloud Data file format
VERSION 0.7
FIELDS x y z
SIZE 4 4 4
TYPE F F F
COUNT 1 1 1
WIDTH 1254
HEIGHT 1
VIEWPOINT -18.2321 96.2205 -1.35163 -0.354149 -0.00701479 0.0211809 0.934923
POINTS 1254
DATA ascii
-35.866127 69.361374 18.876749
-35.920334 69.603996 18.924334
-35.885597 69.875999 18.848799
-36.037003 70.376999 18.9855
-36.052666 69.14267 19.126667
-36.084751 69.379501 19.155001
-35.976501 69.350494 19.0205
-36.105751 69.657745 19.157751
-36.07325 69.898247 19.091499
-36.07275 70.112999 19.0735
-36.172802 70.407799 19.1698
-36.156502 70.610001 19.137001
-36.257 70.981003 19.237
-36.302498 69.207001 19.444
-36.321999 69.421997 19.464001
-36.203999 69.371506 19.318501
-36.358002 69.610001 19.488001
-36.300667 69.894333 19.393999
-36.226997 69.886505 19.285999
-36.269001 70.027 19.351999
-36.232002 70.143494 19.2745
-36.376747 70.406616 19.432875
-36.243 70.478996 19.271
-36.419998 70.694 19.458
-36.363335 70.887337 19.373167
-36.355999 71.176331 19.351667
-36.429668 71.442329 19.412668
-36.428001 68.906494 19.6455
-36.52 69.085999 19.74
-36.413334 69.117668 19.599998
-36.522003 69.380997 19.7265
-36.43325 69.411873 19.602875
-36.416 69.599998 19.573
-36.553333 69.860329 19.717333
-36.476334 69.911667 19.613667
-36.515999 70.147003 19.638
-36.591 70.415001 19.694
-36.466499 70.471497 19.552999
-36.569668 70.877838 19.634834
-36.483002 70.945999 19.516001
-36.544998 71.000999 19.6255
-36.464001 71.015999 19.535
-36.605667 71.420006 19.631002
-36.593998 71.520332 19.641333
-36.656998 71.948502 19.636501
-36.6105 68.904999 19.885
-36.6455 69.111748 19.89975
-36.642834 69.371498 19.876833
-36.734501 69.6605 19.965
-36.752998 69.946999 19.959499
-36.640335 69.886665 19.8305
-36.765999 70.141998 19.968
-36.781998 70.358498 19.948
-36.687199 70.378403 19.833401
-36.625504 70.536499 19.758999
-36.834 70.873505 19.982
-36.737999 70.869003 19.851501
-36.778 71.005997 19.917999
-36.742001 71.067001 19.855
-36.871002 71.375999 19.970001
-36.712002 71.389999 19.756001
-36.806499 71.626999 19.8825
-36.723999 71.521004 19.792
-36.748497 71.884995 19.7565
-36.875 72.092804 19.924
-36.736 72.036003 19.759001
-36.836334 72.36367 19.836334
-36.887001 72.55825 19.89625
-36.938 72.878998 19.917999
-37.004002 73.074997 19.986
-36.825996 68.901505 20.1705
-36.729 68.898003 20.041
-36.818001 69.121002 20.132
-36.801376 69.363129 20.083
-36.895 69.670334 20.174334
-36.890602 69.909996 20.150799
-36.831501 70.096497 20.060501
-36.9244 70.399002 20.141602
-36.87167 70.587334 20.067667
-36.929996 70.920662 20.096334
-37.028999 71.007004 20.24
-36.936501 71.101501 20.1145
-37.061501 71.373001 20.231499
-36.909 71.258003 20.049999
-37.0485 71.593506 20.193001
-36.929333 71.553001 20.050667
-37.061501 71.869003 20.169001
-37.064999 72.065666 20.178001
-37.030998 72.491997 20.069
-37.037663 72.630997 20.098999
-36.997002 72.547997 20.018999
-37.084499 72.915001 20.1005
-37.090836 73.138496 20.115168
-37.056999 68.922997 20.465
-36.981499 68.9515 20.375999
-36.941002 69.116501 20.2925
-37.057873 69.376999 20.423374
-36.953751 69.403503 20.2855
-37.117001 69.737999 20.455
-36.962002 69.565002 20.285
-37.070396 69.905205 20.3902
-37.105499 70.246002 20.386
-37.0812 70.428795 20.3444
-37.144001 70.682495 20.407999
-37.118252 70.936005 20.34425
-37.17775 71.140503 20.423
-37.115002 71.291 20.316
-37.271999 71.626495 20.478251
-37.109253 71.554001 20.297249
-37.269001 71.889999 20.438499
-37.219002 71.987999 20.351
-37.254002 72.054001 20.431
-37.186501 72.044998 20.338501
-37.210499 72.377243 20.31925
-37.321999 72.571999 20.445999
-37.21125 72.5625 20.304749
-37.389 72.940002 20.485001
-37.366501 73.088501 20.452
-37.208 73.093002 20.274
-37.327999 73.458 20.370001
-37.194748 68.943001 20.633249
-37.158337 69.105995 20.578667
-37.278332 69.329002 20.703333
-37.172001 69.429001 20.566502
-37.310501 69.6875 20.703499
-37.161999 69.706001 20.511999
-37.257999 69.824997 20.625
-37.198997 69.9505 20.546499
-37.304333 70.089668 20.679335
-37.307999 70.417999 20.63175
-37.243999 70.322998 20.559999
-37.292999 70.542 20.632
-37.226002 70.531998 20.546
-37.334499 70.891495 20.621
-37.249001 70.950996 20.504
-37.346333 71.02433 20.652
-37.344334 71.366341 20.601667
-37.329666 71.582336 20.580332
-37.498001 71.901001 20.733
-37.421249 72.062874 20.633625
-37.449501 72.395752 20.61475
-37.547001 72.6465 20.741749
-37.419338 72.582664 20.582335
-37.577 72.931999 20.742001
-37.386002 72.806 20.514
-37.542 73.053001 20.674
-37.415749 73.150757 20.541
-37.567001 73.287003 20.705999
-37.573555 73.567558 20.679556
-37.382332 69.173004 20.858665
-37.504002 69.397003 20.983999
-37.397167 69.452164 20.854334
-37.511497 69.705505 20.9655
-37.506001 69.988998 20.944
-37.42783 69.862663 20.837166
-37.4515 70.068001 20.8675
-37.561501 70.420746 20.962749
-37.450249 70.391998 20.81175
-37.429668 70.556671 20.807333
-37.574501 70.887001 20.931999
-37.453003 70.902496 20.786499
-37.572666 71.108002 20.928999
-37.441498 71.253998 20.7505
-37.598003 71.570671 20.91
-37.466499 71.535995 20.751499
-37.554501 71.830498 20.817001
-37.620998 72.065598 20.895
-37.603001 72.471001 20.816
-37.638504 72.604004 20.87875
-37.736 72.984001 20.940001
-37.77 73.170998 20.992001
-37.649666 73.091164 20.834166
-37.700001 73.414001 20.868
-37.811001 73.628998 20.99
-37.668999 73.614006 20.808001
-37.742001 73.941498 20.868
-37.699753 74.151253 20.810499
-37.786003 74.680496 20.885
-37.740002 74.524002 20.816
-37.560001 68.925003 21.104
-37.495998 68.924004 21.021999
-37.593502 69.120331 21.132334
-37.614666 69.389503 21.127501
-37.600334 69.536995 21.115999
-37.643623 69.888626 21.117001
-37.668999 70.112747 21.142
-37.661831 70.420502 21.094
-37.762001 70.703003 21.202
-37.653999 70.684502 21.064999
-37.794998 70.889999 21.219999
-37.686249 70.89325 21.078499
-37.766998 71.132996 21.188999
-37.646 71.020996 21.031
-37.762001 71.296997 21.145
-37.789001 71.535995 21.153
-37.694332 71.558998 21.032999
-37.836002 71.934334 21.170668
-37.793667 72.056999 21.121668
-37.744999 72.129997 21.070999
-37.854 72.463997 21.138
-37.8405 72.607803 21.124201
-37.799999 72.910995 21.034
-37.89925 73.105995 21.146
-37.943501 73.445496 21.1635
-38.013 73.639999 21.249001
-37.909832 73.665504 21.118166
-37.889999 73.848999 21.0825
-38.014999 74.157997 21.198999
-37.92033 74.168671 21.084166
-37.921501 74.420998 21.054501
-38.022999 74.688004 21.182499
-37.921501 74.681503 21.049
-38.008999 74.8535 21.160999
-38.038002 75.179001 21.1495
-38.082748 75.366501 21.212
-38.134998 75.694 21.226
-38.071503 75.769501 21.159
-37.7915 68.930496 21.4
-37.668999 68.946503 21.2605
-37.837666 69.192665 21.433332
-37.8335 69.423004 21.412251
-37.726997 69.403 21.280499
-37.872002 69.723 21.431
-37.845402 69.934402 21.3762
-37.901497 70.188499 21.429001
-37.848751 70.35675 21.3395
-37.837502 70.54525 21.3255
-38.004002 70.788002 21.496
-37.919331 70.87867 21.383333
-37.882504 71.031166 21.344336
-38.043999 71.355003 21.481001
-37.972 71.399002 21.395
-38.022999 71.556 21.471001
-37.925751 71.563248 21.335999
-37.922501 71.787003 21.317001
-38.045502 72.138504 21.4345
-37.941002 72.068001 21.310001
-38.053497 72.414001 21.393501
-37.951 72.392998 21.278999
-38.092999 72.625999 21.451666
-37.990002 72.596001 21.329
-38.086998 72.844498 21.417
-38.068333 73.096001 21.369833
-37.971001 73.176003 21.264999
-38.174 73.450996 21.465
-37.992001 73.341003 21.25
-38.1245 73.616371 21.39875
-38.0975 73.871002 21.348999
-38.124626 74.148621 21.35075
-38.251999 74.487 21.483999
-38.092999 74.308998 21.305
-38.161598 74.635597 21.3536
-38.255001 74.878998 21.479
-38.247002 74.989998 21.445
-38.258499 75.216003 21.4555
-38.178501 75.154251 21.34025
-38.261002 75.617004 21.3995
-38.200001 75.696999 21.316
-38.267502 75.764 21.432499
-38.155502 75.801498 21.285999
-38.324501 76.136002 21.444
-38.203999 76.100998 21.288
-38.296001 76.282997 21.403
-38.237 76.300003 21.341
-38.368 76.683998 21.445
-38.005001 68.927002 21.671
-37.917 68.938004 21.582001
-38.041 69.221001 21.691999
-37.873001 69.021004 21.52
-38.051003 69.401505 21.695999
-37.977501 69.389496 21.59
-38.006001 69.505997 21.646999
-37.966 69.63575 21.5665
-38.086998 69.947495 21.6735
-37.995998 69.950996 21.559999
-38.060665 70.072998 21.659002
-37.952 70.108002 21.507
-38.055332 70.414337 21.591665
-38.056 70.592751 21.602501
-38.150002 70.914749 21.674252
-38.1185 71.065674 21.642334
-38.1185 71.311005 21.6005
-38.148376 71.563248 21.617876
-38.146751 71.874252 21.577999
-38.292 72.058998 21.746
-38.1478 72.1008 21.578199
-38.2575 72.539001 21.646
-38.198498 72.644501 21.591667
-38.321125 73.101379 21.6945
-38.209 73.141006 21.5515
-38.220501 73.344498 21.549
-38.369003 73.628494 21.695
-38.248001 73.649506 21.556999
-38.361 73.8675 21.682501
-38.346497 74.130493 21.6318
-38.305 74.408501 21.562
-38.384499 74.685501 21.637501
-38.399002 74.904663 21.651001
-38.414997 75.194672 21.634333
-38.427666 75.345665 21.666666
-38.532001 75.684998 21.749001
-38.42775 75.643997 21.622749
-38.425335 75.826332 21.610666
-38.431 76.087997 21.588001
-38.530998 76.2845 21.7075
-38.398499 76.281502 21.5485
-38.584 76.649994 21.7155
-38.429501 76.614502 21.526501
-38.550999 76.790001 21.673
-38.466499 76.818001 21.58
-38.598999 77.143997 21.701
-38.627998 77.348999 21.747
-38.144665 68.948997 21.867666
-38.10033 69.060333 21.804335
-38.256001 69.266998 21.959999
-38.175751 69.404755 21.847752
-38.246002 69.616501 21.928749
-38.301003 69.977997 21.952999
-38.192501 69.859001 21.826834
-38.328999 70.206001 21.973
-38.181 70.058998 21.809
-38.327 70.327003 21.952999
-38.215248 70.386246 21.797001
-38.332497 70.513 21.9515
-38.206497 70.518494 21.797501
-38.33075 70.833496 21.912748
-38.220001 70.834999 21.774
-38.333748 71.105247 21.9095
-38.330334 71.398338 21.860334
-38.323799 71.583199 21.854599
-38.34 71.968002 21.813499
-38.366249 72.121246 21.859375
-38.312 72.331001 21.756001
-38.507 72.583 21.954
-38.4016 72.602592 21.851999
-38.4585 72.918999 21.882
-38.537998 73.127998 21.969999
-38.425999 73.088249 21.83025
-38.553249 73.576004 21.933498
-38.43425 73.600754 21.795002
-38.405998 73.762001 21.763
-38.574402 74.163002 21.920399
-38.487999 74.170998 21.804001
-38.548 74.411003 21.872
-38.5 74.456001 21.799
-38.589996 74.693001 21.8985
-38.491001 74.6315 21.786499
-38.674999 74.919998 21.997
-38.453999 74.764 21.753
-38.602665 75.173332 21.891417
-38.616669 75.587997 21.874666
-38.610802 75.8358 21.861599
-38.670998 76.223 21.880501
-38.688 76.318497 21.906
-38.677002 76.572998 21.852501
-38.768997 76.884995 21.9575
-38.667 76.813995 21.8265
-38.778 77.101997 21.940001
-38.657501 77.067505 21.7815
-38.792999 77.269997 21.938
-38.720501 77.323502 21.849499
-38.800751 77.587494 21.93475
-38.388 69.214005 22.139999
-38.397625 69.419998 22.133875
-38.425999 69.630997 22.163
-38.405502 69.879501 22.099751
-38.402332 70.101997 22.087667
-38.542999 70.355003 22.233
-38.463749 70.427246 22.123501
-38.519001 70.615005 22.192501
-38.441498 70.711998 22.074501
-38.550499 70.911003 22.196999
-38.4575 70.979004 22.061001
-38.535 71.063004 22.194
-38.441002 71.065498 22.068501
-38.583332 71.386665 22.194334
-38.563999 71.593002 22.162249
-38.478001 71.554001 22.035999
-38.550499 71.89875 22.085251
-38.598751 72.080254 22.14875
-38.613667 72.315498 22.1555
-38.633701 72.614502 22.1411
-38.665333 72.921669 22.144999
-38.678249 73.116501 22.147499
-38.695667 73.306 22.163666
-38.690334 73.618828 22.1045
-38.686001 73.89225 22.0905
-38.716999 74.128998 22.102501
-38.803497 74.336502 22.2185
-38.778004 74.603004 22.144667
-38.712002 74.684662 22.057669
-38.674999 74.792999 22.023001
-38.814003 75.136192 22.166401
-38.694 75.228996 22.013
-38.821999 75.408501 22.1665
-38.823334 75.639 22.131998
-38.822338 75.839836 22.126333
-38.783001 76.106506 22.040501
-38.846127 76.346878 22.108749
-38.918163 76.707001 22.151001
-38.889 76.853996 22.133999
-39.017502 77.244003 22.237499
-38.877998 77.036003 22.077999
-38.935749 77.36412 22.137375
-39.006001 77.692001 22.186001
-39.036999 77.889 22.237
-38.929798 77.862999 22.087399
-38.565002 68.957001 22.4165
-38.493 68.999001 22.318001
-38.475502 69.141998 22.2675
-38.593834 69.394165 22.398499
-38.530998 69.585999 22.311001
-38.626122 69.888626 22.379749
-38.617001 70.090752 22.366751
-38.677998 70.371674 22.403
-38.630001 70.516998 22.338999
-38.757999 70.988998 22.462
-38.6745 70.819496 22.365334
-38.657001 71.047661 22.340668
-38.775002 71.265999 22.469
-38.706001 71.316002 22.370998
-38.807999 71.623505 22.476002
-38.7155 71.571503 22.347
-38.782001 71.872002 22.399
-38.740002 71.917999 22.334999
-38.834 72.093002 22.452
-38.722668 72.108833 22.313334
-38.8405 72.632103 22.4121
-38.892666 73.143837 22.423834
-38.904999 73.388 22.415001
-38.889584 73.651413 22.370918
-38.897003 73.877502 22.376499
-38.926872 74.161377 22.378124
-38.868999 74.269997 22.323
-39.041 74.727997 22.493
-38.935169 74.692169 22.350832
-38.912334 74.860329 22.327002
-39.054501 75.197006 22.452
-38.941498 75.237503 22.3235
-39.024002 75.3955 22.4345
-38.973999 75.496002 22.357
-38.9655 75.685997 22.313
-39.078499 75.766998 22.4685
-38.9795 75.839996 22.351501
-39.005001 76.081001 22.32
-39.078125 76.342377 22.405376
-39.047001 76.552002 22.337999
-39.105999 76.806328 22.397665
-38.988998 76.841003 22.264999
-39.139668 77.140663 22.406334
-39.111332 77.360664 22.372999
-39.1805 77.697495 22.415001
-39.154999 77.849747 22.383751
-39.18433 78.179665 22.387335
-39.15675 78.400002 22.346748
-38.778999 68.943001 22.66
-38.685501 68.948502 22.554501
-38.782001 69.060997 22.694
-38.714336 69.167 22.577332
-38.805 69.441338 22.657333
-38.698002 69.477997 22.528999
-38.822502 69.643501 22.675499
-38.853664 69.920662 22.675333
-38.731998 69.778999 22.531
-38.8615 70.119003 22.672501
-38.730999 70.008003 22.530001
-38.845249 70.329498 22.622002
-38.812 70.530746 22.578751
-38.748001 70.610001 22.500999
-38.893799 70.8806 22.640001
-38.884834 71.080666 22.638334
-38.920502 71.348495 22.637001
-39.001999 71.560997 22.705999
-38.9226 71.629204 22.619801
-39.0215 72.0755 22.6945
-38.937168 72.098335 22.585833
-38.9305 72.331497 22.5555
-39.09 72.627502 22.709999
-38.961666 72.608337 22.559
-39.064003 72.884003 22.681
-39.040333 73.13134 22.621332
-38.945999 73.161003 22.511999
-39.147499 73.477997 22.707001
-39.101097 73.684097 22.6483
-39.071999 73.956497 22.587002
-39.095001 74.188995 22.601667
-39.141331 74.407661 22.651665
-39.135201 74.673996 22.602402
-39.190498 74.946503 22.667999
-39.160801 75.182205 22.610199
-39.057999 75.264999 22.504999
-39.261002 75.532997 22.709
-39.193665 75.656998 22.612665
-39.258999 75.778 22.719999
-39.192497 75.8535 22.622501
-39.198997 76.138 22.574501
-39.2855 76.305496 22.688
-39.205498 76.403503 22.578499
-39.268002 76.735001 22.601
-39.202999 76.728996 22.524
-39.316334 76.821663 22.679667
-39.212502 76.945999 22.540001
-39.381001 77.204002 22.722
-39.338665 77.354332 22.657333
-39.243 77.339996 22.538
-39.305668 77.603996 22.589666
-39.364334 77.858665 22.646332
-39.36433 78.127998 22.633333
-39.363998 78.402252 22.613001
-39.385002 78.6455 22.617001
-39.395 78.875 22.6145
-39.515999 79.386002 22.728001
-39.467999 79.442001 22.672001
-38.899002 68.959 22.838501
-39.049 69.190002 22.999001
-38.945667 69.410172 22.8435
-39.028999 69.501999 22.958
-38.897999 69.5495 22.790001
-39.054001 69.827499 22.941
-38.9725 69.912498 22.824501
-39.040001 70.095001 22.9095
-38.944 70.160004 22.774
-39.0695 70.440002 22.8965
-39.062332 70.563004 22.896002
-38.969002 70.610504 22.7785
-39.120499 70.883499 22.928001
-39.095333 71.071999 22.901167
-39.076 71.328667 22.841333
-39.115501 71.582245 22.8755
-39.157001 71.901749 22.891001
-39.147499 72.096756 22.865999
-39.264999 72.583496 22.943001
-39.147999 72.631332 22.812834
-39.2995 73.135002 22.958
-39.182251 73.136993 22.80275
-39.292 73.439003 22.905001
-39.314499 73.664001 22.914999
-39.220001 73.674004 22.796
-39.270248 73.861008 22.865
-39.338501 74.203003 22.9165
-39.224998 74.115997 22.7705
-39.276001 74.278999 22.855
-39.206001 74.268997 22.764999
-39.382336 74.683998 22.927002
-39.307999 74.791748 22.839001
-39.244999 74.851997 22.759001
-39.3755 75.203751 22.86375
-39.346169 75.2845 22.865499
-39.403603 75.622208 22.8958
-39.401001 75.881668 22.880667
-39.386997 76.160995 22.818001
-39.432999 76.317001 22.888
-39.406666 76.601341 22.805334
-39.516998 76.822998 22.931999
-39.431 76.842003 22.837999
-39.571999 77.183998 22.969
-39.442501 77.134995 22.809502
-39.554001 77.352005 22.939499
-39.427498 77.366501 22.7925
-39.585503 77.675507 22.949001
-39.557663 77.871338 22.914331
-39.477501 77.871002 22.806
-39.632999 78.248001 22.965
-39.449001 78.028 22.759001
-39.563 78.38633 22.872
-39.476002 78.345001 22.752001
-39.593002 78.581497 22.900501
-39.597603 78.893204 22.880001
-39.551003 79.114502 22.809
-39.617752 79.403625 22.87875
-39.548 79.601997 22.784
-39.196999 69.230003 23.190001
-39.121334 69.416504 23.072334
-39.167332 69.650673 23.117834
-39.305 69.989998 23.243
-39.2075 69.987503 23.122
-39.250999 70.117996 23.191
-39.124001 70.012001 23.030001
-39.332001 70.495003 23.23
-39.198334 70.357826 23.069834
-39.252998 70.533501 23.143002
-39.155998 70.540001 23.021
-39.2845 70.824997 23.144501
-39.216 70.880997 23.052999
-39.317749 71.12075 23.1805
-39.2085 71.042999 23.041
-39.282001 71.348999 23.110001
-39.235001 71.386002 23.046
-39.317001 71.589005 23.1465
-39.243 71.631668 23.041
-39.365498 72.100998 23.141249
-39.380165 72.39267 23.123335
-39.388996 72.630005 23.112333
-39.372665 72.842003 23.082666
-39.535999 73.141998 23.239
-39.412334 73.161339 23.101667
-39.516998 73.355003 23.221001
-39.463001 73.495003 23.132
-39.507 73.708 23.184
-39.434502 73.705498 23.0825
-39.412998 73.782997 23.065001
-39.5555 74.177246 23.188999
-39.442333 74.173668 23.055
-39.4235 74.362 23.0285
-39.553497 74.734001 23.151001
-39.467499 74.701996 23.036499
-39.574249 75.091751 23.147499
-39.559666 75.329338 23.129999
-39.460999 75.262001 23.013
-39.551998 75.569 23.096001
-39.593998 75.778664 23.139334
-39.491001 75.837997 23.014
-39.651669 76.148003 23.167334
-39.610497 76.3265 23.1115
-39.617001 76.604332 23.08
-39.646751 76.832497 23.1085
-39.599998 77.042496 23.029499
-39.778999 77.3545 23.240499
-39.685501 77.335999 23.115
-39.792999 77.613998 23.226
-39.667 77.571999 23.069
-39.69825 77.863007 23.087502
-39.7855 78.100754 23.18825
-39.702999 78.242996 23.063999
-39.82 78.406998 23.213501
-39.685501 78.423004 23.0445
-39.863998 78.703003 23.231001
-39.80975 78.873497 23.158749
-39.719002 78.895996 23.042999
-39.751999 79.241501 23.056499
-39.873001 79.411995 23.201334
-39.733002 79.477493 23.046501
-39.333 68.955002 23.397999
-39.236 68.954002 23.268999
-39.332001 69.178001 23.376167
-39.3545 69.446495 23.372
-39.394501 69.634995 23.417
-39.353001 69.844002 23.326332
-39.363503 70.0345 23.3505
-39.528999 70.387001 23.496
-39.4305 70.444504 23.362
-39.412998 70.601006 23.353333
-39.412003 70.921333 23.306
-39.536999 71.107002 23.479
-39.419003 71.126671 23.329666
-39.557999 71.497002 23.438999
-39.465 71.448997 23.33
-39.543999 71.589996 23.438
-39.456749 71.578003 23.32025
-39.512501 71.828003 23.3505
-39.556252 72.07975 23.383751
-39.456001 72.080994 23.263
-39.574001 72.477997 23.368
-39.605499 72.642502 23.395668
-39.541 72.848 23.289
-39.627998 73.130333 23.387833
-39.533001 73.258003 23.268
-39.677696 73.638199 23.398499
-39.681999 73.907005 23.384333
-39.769001 74.195999 23.465
-39.658333 74.160339 23.338667
-39.792999 74.491997 23.478001
-39.648998 74.477997 23.297001
-39.792999 74.623001 23.448
-39.675503 74.713669 23.3125
-39.634499 74.885498 23.261
-39.782001 75.10067 23.420664
-39.696999 75.197998 23.302999
-39.791 75.311996 23.449501
-39.675247 75.3815 23.289001
-39.824001 75.699333 23.429667
-39.812 75.871002 23.427
-39.7145 75.878006 23.275501
-39.800999 76.043999 23.368999
-39.860332 76.372665 23.417669
-39.743 76.320999 23.289
-39.845669 76.649338 23.377335
-39.861122 76.85862 23.390125
-39.792 77.074997 23.275999
-39.893497 77.342499 23.38925
-39.958 77.736496 23.4335
-39.870502 77.901749 23.31175
-40 78.015999 23.48
-40.025002 78.460999 23.489
-39.956749 78.299255 23.386501
-39.964333 78.622993 23.377998
-40.043999 78.912003 23.459
-39.938 78.919495 23.321499
-40.022499 79.085999 23.4375
-39.924 79.232002 23.274
-40.03075 79.343498 23.410999
-39.967999 79.460999 23.341
-39.941002 79.546997 23.312
-39.566002 68.966003 23.693001
-39.460503 68.953995 23.557999
-39.477001 69.093002 23.580502
-39.574501 69.376495 23.6625
-39.467999 69.360001 23.528
-39.582497 69.503998 23.681999
-39.474998 69.540001 23.542999
-39.593498 69.866753 23.63575
-39.5798 70.084602 23.6092
-39.720001 70.436005 23.741501
-39.615002 70.598503 23.602167
-39.601997 70.803001 23.569
-39.695663 71.107666 23.664999
-39.635002 71.455498 23.5355
-39.6465 71.593506 23.573
-39.785 71.905998 23.698999
-39.678001 71.890503 23.563999
-39.820999 72.088997 23.726
-39.692501 72.113838 23.569834
-39.851997 72.442505 23.737999
-39.690002 72.379997 23.528999
-39.803001 72.584999 23.657501
-39.727001 72.640999 23.558001
-39.8325 72.891998 23.664501
-39.816498 73.139755 23.631001
-39.727001 73.009003 23.517
-39.82375 73.458755 23.605999
-39.818001 73.692749 23.587502
-39.925999 73.984001 23.691999
-39.875 74.140999 23.62475
-39.8325 74.378006 23.551001
-39.931 74.688499 23.6415
-39.879002 74.843498 23.589499
-39.948334 75.162994 23.636332
-39.937332 75.347328 23.622665
-39.952 75.614998 23.6075
-40.007 75.782997 23.681
-39.917 75.807495 23.570999
-40.043503 76.186501 23.668999
-40.053001 76.329002 23.698
-39.945999 76.341835 23.549166
-40.064499 76.7425 23.65
-40.064331 76.892334 23.662001
-40.031666 77.135338 23.584
-40.084 77.368668 23.646002
-39.984001 77.443001 23.52
-40.107334 77.687004 23.638334
-40.071335 77.888329 23.582335
-40.172501 78.151505 23.6905
-40.125198 78.3694 23.610199
-40.212002 78.695999 23.695
-40.148998 78.875404 23.606199
-40.112 79.044998 23.566
-40.272999 79.434494 23.7295
-40.176666 79.41333 23.610001
-40.091999 79.564003 23.504
-39.762001 68.969002 23.955
-39.666 68.975998 23.8305
-39.681999 69.142998 23.8365
-39.799 69.370003 23.952999
-39.704498 69.378998 23.826
-39.812 69.509003 23.978001
-39.711998 69.503998 23.842501
-39.813667 69.85067 23.924002
-39.717999 69.796997 23.797001
-39.803669 70.158501 23.884501
-39.717999 70.025002 23.792
-39.848499 70.434494 23.902
-39.816334 70.547997 23.873667
-39.720001 70.607002 23.759001
-39.849125 70.910995 23.8745
-39.859669 71.088661 23.897001
-39.749001 71.125999 23.766001
-39.912998 71.417999 23.927
-39.942001 71.643997 23.948
-39.812 71.828003 23.750999
-39.903667 72.159004 23.854334
-40.043999 72.491997 23.983
-39.862 72.281998 23.782
-40.008999 72.546997 23.933001
-39.936665 72.653664 23.838999
-40.053497 72.9245 23.9555
-39.875999 72.777 23.75
-40.029999 73.124496 23.915001
-39.955334 73.134331 23.813665
-40.001999 73.388 23.853001
-39.946999 73.413002 23.775
-40.07325 73.668999 23.919001
-39.964001 73.688004 23.771
-40.042 73.832001 23.881001
-39.952 73.848503 23.7535
-40.099499 74.1605 23.914667
-39.986 74.223 23.75
-40.066334 74.370331 23.865
-40.178001 74.704002 23.965
-40.006001 74.767998 23.767
-40.114666 75.095001 23.849998
-40.142502 75.337334 23.888334
-40.158501 75.619995 23.873501
-40.155334 75.803329 23.877001
-40.121498 76.059998 23.792
-40.272999 76.282997 23.965
-40.185001 76.314499 23.8575
-40.298 76.599998 23.973
-40.189335 76.653343 23.825998
-40.292 76.841003 23.948999
-40.192497 76.856499 23.831001
-40.273499 77.140503 23.9035
-40.300999 77.389 23.944
-40.230667 77.346336 23.828667
-40.2285 77.577499 23.8165
-40.329002 77.875 23.912251
-40.241001 77.941002 23.802
-40.374001 78.130997 23.959499
-40.219002 78.040001 23.768999
-40.318001 78.366333 23.858332
-40.351665 78.660332 23.881998
-40.331001 78.930664 23.834
-40.391666 79.183006 23.898333
-40.380333 79.416168 23.870667
-39.884499 68.954254 24.105499
-39.873669 69.164665 24.080332
-40.019001 69.412003 24.231001
-39.928001 69.43 24.110001
-39.90633 69.598 24.081331
-40.02 69.869003 24.187
-39.960999 69.880005 24.112999
-40.021999 70.098999 24.191999
-39.928333 70.090332 24.060333
-40.040497 70.418503 24.16
-39.984001 70.491997 24.073
-40.0625 70.572495 24.2005
-39.961502 70.6325 24.060501
-40.075333 70.889336 24.179998
-39.941002 70.763 24.014
-40.043751 71.096504 24.1255
-39.979 71.065002 24.035999
-40.042 71.296997 24.108999
-39.976002 71.299004 24.024
-40.120331 71.62767 24.171
-40.102249 71.901749 24.116249
-40.112499 72.13475 24.110998
-40.173496 72.621002 24.1495
-40.087002 72.805 24.021
-40.197502 73.14212 24.130501
-40.263 73.360001 24.198999
-40.222504 73.475006 24.125
-40.310001 73.702003 24.219
-40.184498 73.655998 24.071999
-40.315498 74.023499 24.207001
-40.203999 74.126335 24.055
-40.300499 74.367996 24.166
-40.267998 74.553001 24.099998
-40.215 74.644997 24.011999
-40.318001 74.772995 24.158001
-40.240002 74.82 24.063999
-40.351501 75.151505 24.162001
-40.247002 75.084999 24.002001
-40.327168 75.342003 24.133001
-40.347 75.720993 24.111
-40.365753 75.850754 24.14975
-40.3395 76.082504 24.0795
-40.386002 76.332245 24.122252
-40.382999 76.852333 24.079
-40.377502 77.072495 24.050499
-40.539001 77.310997 24.229
-40.424999 77.364326 24.081667
-40.501999 77.513 24.184
-40.487 77.611 24.149
-40.568001 77.899002 24.233
-40.469833 77.824837 24.098166
-40.449001 78.067001 24.065001
-40.564835 78.362999 24.195501
-40.459 78.432495 24.052999
-40.59 78.614998 24.205999
-40.572502 78.861252 24.158501
-40.473999 78.936996 24.021
-40.586502 79.084503 24.17
-40.584496 79.423752 24.132999
-40.114002 69.127998 24.393999
-40.126999 69.371994 24.373499
-40.088669 69.535332 24.332335
-40.166832 69.879158 24.376167
-40.178123 70.074371 24.386875
-40.187332 70.390007 24.356001
-40.269501 70.645996 24.451
-40.182999 70.554001 24.348499
-40.1875 70.790497 24.338501
-40.32 71.144997 24.466499
-40.18433 71.081001 24.307333
-40.310997 71.362503 24.435501
-40.233002 71.459999 24.3265
-40.304668 71.644997 24.418333
-40.195499 71.628502 24.271
-40.318501 71.962006 24.4
-40.336002 72.170746 24.409748
-40.2495 72.442505 24.251499
-40.376503 72.6045 24.404999
-40.336998 72.8955 24.333
-40.396336 73.165993 24.386
-40.424 73.296997 24.434
-40.415001 73.638496 24.366249
-40.384663 73.832329 24.329
-40.550999 74.140999 24.492001
-40.441166 74.208168 24.3535
-40.550999 74.389999 24.497999
-40.475502 74.4375 24.387501
-40.5555 74.709503 24.4615
-40.429333 74.665337 24.296667
-40.514 74.822998 24.427
-40.463501 74.914497 24.344501
-40.565002 75.227997 24.434999
-40.408001 75.001999 24.257
-40.584999 75.392502 24.477501
-40.460503 75.286499 24.310501
-40.522003 75.660995 24.345001
-40.459999 75.736 24.26
-40.573334 75.820335 24.424667
-40.563 76.124001 24.368999
-40.575249 76.338501 24.380749
-40.688999 77.193001 24.434999
-40.716999 77.393997 24.482
-40.598999 77.563004 24.297001
-40.6875 77.865494 24.384251
-40.667999 78.09333 24.353668
-40.758999 78.404999 24.434999
-40.671997 78.427994 24.344
-40.792999 78.867004 24.4655
-40.711998 78.887749 24.341251
-40.797001 79.157997 24.441999
-40.793503 79.485504 24.425999
-40.712666 79.38166 24.312668
-40.306747 68.98175 24.654499
-40.310001 69.018997 24.673
-40.174999 69.007004 24.503
-40.350166 69.368164 24.657999
-40.349998 69.5998 24.6502
-40.372498 69.8535 24.639999
-40.369999 70.091805 24.624401
-40.402332 70.420998 24.626333
-40.408901 70.626503 24.633801
-40.527 70.978996 24.746
-40.395 70.981003 24.573999
-40.414253 71.087875 24.602625
-40.522999 71.439003 24.711
-40.456001 71.445 24.617001
-40.5275 71.630493 24.713501
-40.459251 71.651001 24.613501
-40.424332 71.85733 24.552668
-40.561665 72.099998 24.699667
-40.453999 72.147003 24.562
-40.568501 72.406998 24.675999
-40.539501 72.593506 24.6255
-40.47525 72.630005 24.543251
-40.625164 73.114166 24.685167
-40.568501 73.250504 24.626999
-40.626003 73.660667 24.643667
-40.6385 73.866501 24.652
-40.672501 74.164505 24.6525
-40.618668 74.258667 24.597666
-40.757 74.516998 24.743999
-40.680332 74.625999 24.633001
-40.662003 74.8125 24.61775
-40.783001 75.059998 24.746
-40.693748 75.121246 24.6185
-40.771999 75.295998 24.709
-40.68 75.313004 24.6035
-40.812 75.620003 24.733
-40.737999 75.676003 24.6355
-40.786999 75.831001 24.716999
-40.737999 75.997002 24.621
-40.699501 76.120499 24.549
-40.815002 76.335007 24.684999
-40.709999 76.335999 24.539
-40.792332 76.617668 24.624334
-40.806999 77.093506 24.6035
-40.735001 77.154999 24.503
-40.854332 77.379669 24.644667
-40.892502 77.652496 24.673
-40.931999 77.939003 24.698
-40.845333 78.384338 24.563667
-40.831001 78.605499 24.532501
-40.924332 78.91983 24.621834
-41.034 79.190002 24.746
-41.041 79.484001 24.743
-40.94175 79.3675 24.6045
-40.542 68.962997 24.941
-40.451 68.985001 24.830502
-40.536247 69.207001 24.921749
-40.485001 69.318001 24.841999
-40.567802 69.615593 24.927601
-40.467999 69.508003 24.802999
-40.521 69.885002 24.834999
-40.582001 70.043327 24.913332
-40.466 70.130997 24.764
-40.618168 70.353165 24.924833
-40.587666 70.627663 24.873001
-40.597 70.837334 24.855667
-40.62125 71.088501 24.87425
-40.619667 71.375 24.843666
-40.679668 71.596336 24.902
-40.66375 71.865501 24.866501
-40.757 72.149002 24.958
-40.650501 72.197502 24.8295
-40.646999 72.369003 24.788
-40.793999 72.570007 24.955
-40.678001 72.6325 24.799751
-40.776501 72.839005 24.9165
-40.718002 72.849503 24.8405
-40.802498 73.181999 24.908001
-40.713001 73.212997 24.809999
-40.823997 73.473 24.915501
-40.808666 73.661667 24.884333
-40.726997 73.663498 24.771
-40.869999 73.981003 24.924
-40.8685 74.221497 24.928499
-40.75 74.132004 24.764
-40.844002 74.294502 24.8955
-40.937 74.706001 24.959
-40.848331 74.805664 24.853333
-40.873501 75.042999 24.865
-40.925751 75.325249 24.913752
-41.012001 75.736 24.986
-40.897335 75.526337 24.858665
-41.014999 75.996002 24.986
-40.905666 75.793671 24.851334
-40.969002 76.104004 24.903999
-41.016998 76.377998 24.955999
-40.924332 76.387337 24.831667
-40.907001 76.568001 24.787001
-41.029499 76.863998 24.927999
-40.973999 76.956001 24.862
-41.000999 77.137001 24.853001
-41.069 77.389 24.929501
-41.018002 77.560997 24.857
-40.950001 77.559998 24.763
-41.07 77.870667 24.898001
-40.984001 77.899002 24.777
-41.050499 78.153503 24.8405
-41.10775 78.431503 24.893501
-41.148499 78.677505 24.93
-41.192001 78.957001 24.969999
-41.050999 79.222 24.957001
-41.1595 79.375 24.893501
-40.764 68.999001 25.247999
-40.6315 68.951996 25.056499
-40.656998 69.048332 25.113001
-40.678501 69.402336 25.083334
-40.715668 69.596672 25.131668
-40.794502 69.903999 25.189499
-40.681499 69.931 25.043499
-40.758003 70.061005 25.151001
-40.723 70.18 25.087
-40.82 70.453995 25.177
-40.729 70.292999 25.080999
-40.801498 70.564003 25.14975
-40.691002 70.572998 25.011
-40.817669 70.795326 25.147667
-40.731998 70.989998 25.013
-40.827999 71.083336 25.145332
-40.736 71.114998 25.033001
-40.8465 71.365997 25.133499
-40.745998 71.361 25.004
-40.869503 71.637169 25.153502
-40.8745 71.879501 25.133499
-40.889 72.107201 25.132999
-40.853001 72.377663 25.061666
-40.94733 72.661659 25.155001
-41.028 72.922997 25.237
-40.928001 72.867996 25.118
-40.929501 73.123505 25.091623
-40.882999 73.326004 25.02
-41.017502 73.565498 25.165001
-40.939499 73.679504 25.049
-41.028999 73.779999 25.194
-40.964001 73.872757 25.080502
-41.071999 74.157501 25.188499
-40.963001 74.148003 25.046
-41.0275 74.386002 25.1255
-40.990002 74.317001 25.094999
-41.102249 74.733505 25.185249
-40.976002 74.541 25.028999
-40.986 74.794998 25.054001
-41.072998 75.151505 25.1115
-41.082497 75.360001 25.129501
-41.147999 75.730003 25.162001
-41.100834 75.838501 25.115499
-41.109333 76.168999 25.127998
-40.947502 76.124496 25.171499
-41.136002 76.348 25.111666
-41.16 76.522003 25.139
-41.283001 76.870003 25.247999
-41.150803 76.869598 25.080997
-41.164001 77.247498 25.059
-41.280998 77.333504 25.212999
-41.213501 77.469002 25.126999
-41.153999 77.675003 25.017
-41.271 77.896004 25.153
-41.177334 77.903 25.045334
-41.309498 78.372002 25.175751
-41.195 78.556999 25.018999
-41.330002 78.884003 25.1525
-41.235001 78.910004 25.021999
-41.307499 79.112251 25.126001
-41.329334 79.491997 25.120337
-41.098499 79.311996 25.0875
-40.915333 69.129494 25.430498
-40.848999 69.320007 25.313499
-40.902252 69.562744 25.368999
-41.007 69.985001 25.461
-40.872398 69.817795 25.340801
-40.8815 70.052498 25.304001
-41.046001 70.497002 25.469999
-40.910999 70.297501 25.318001
-41.014 70.557999 25.419001
-40.947998 70.6185 25.345501
-41.0555 70.911499 25.4415
-40.993 70.985001 25.35
-41.039001 71.119003 25.426998
-40.943504 71.099747 25.2925
-41.072998 71.412498 25.426498
-40.938999 71.348999 25.264
-41.067497 71.632004 25.4165
-40.9855 71.607498 25.313499
-41.167999 71.984001 25.492001
-41.077599 72.105797 25.376799
-41.105667 72.463333 25.376333
-41.091 72.64167 25.349335
-41.061501 72.804001 25.302
-40.859001 72.974998 25.343
-41.172749 73.120499 25.4065
-41.1675 73.350502 25.398748
-41.154598 73.6772 25.342197
-41.272999 73.960999 25.465
-41.196003 74.075005 25.353333
-41.303001 74.269997 25.49
-41.175999 74.284004 25.331667
-41.310001 74.584999 25.464001
-41.1745 74.591003 25.2885
-41.282997 74.787003 25.4205
-41.190998 74.895248 25.3055
-41.312 75.206497 25.4205
-41.317497 75.397499 25.418999
-41.315498 75.594498 25.390499
-41.321751 75.830505 25.40275
-41.341 76.218002 25.375999
-41.237 76.152 25.254
-41.355 76.367996 25.392
-41.428001 76.693001 25.451
-41.381668 76.846001 25.379999
-41.3265 77.157501 25.290501
-41.429337 77.413338 25.403
-41.522999 77.717003 25.493
-41.438 77.695999 25.375999
-41.465 77.940498 25.4125
-41.377998 78.097 25.285
-41.549 78.355499 25.4685
-41.435665 78.389671 25.336668
-41.554497 78.873001 25.450001
-41.453499 78.917496 25.3195
-41.589001 79.376495 25.443501
-41.457001 79.399498 25.278
-41.549 79.511002 25.415001
-41.495998 79.538002 25.356001
-41.146999 68.995003 25.723
-41.087002 69.072327 25.647667
-41.076252 69.365997 25.6005
-41.088001 69.607254 25.6145
-41.101334 69.914665 25.595667
-41.138332 70.109001 25.638666
-41.188 70.439003 25.653999
-41.251999 70.625999 25.747999
-41.145252 70.612503 25.60075
-41.271 70.880997 25.733
-41.176003 70.8955 25.6005
-41.285999 71.147003 25.749001
-41.187252 71.111252 25.604
-41.2005 71.397995 25.5895
-41.262001 71.621498 25.657001
-41.169331 71.675659 25.544333
-41.315002 71.887497 25.709499
-41.306 72.165497 25.67
-41.226501 72.084 25.57
-41.314003 72.412498 25.651001
-41.208 72.405998 25.513
-41.290749 72.638252 25.602749
-41.306999 72.877998 25.6105
-41.347748 73.191498 25.633751
-41.363251 73.580246 25.616501
-41.340332 73.839333 25.580332
-41.416748 74.142258 25.644125
-41.436665 74.377998 25.666666
-41.368999 74.510002 25.545
-41.525002 74.905998 25.747
-41.428997 74.843163 25.601667
-41.522499 75.095993 25.708
-41.415668 75.127335 25.566332
-41.414001 75.330002 25.564001
-41.544502 75.595993 25.7045
-41.486 75.704002 25.622
-41.544998 75.880501 25.701
-41.442001 75.764 25.551001
-41.476002 76.081001 25.582001
-41.553001 76.859001 25.610001
-41.5 76.888 25.545
-41.605499 77.149498 25.656
-41.616997 77.369499 25.650499
-41.558498 77.589996 25.566
-41.637001 77.866501 25.638
-41.640667 78.071335 25.643999
-41.649666 78.435669 25.621666
-41.629002 78.710999 25.562
-41.658501 78.960999 25.575001
-41.717999 79.137001 25.658001
-41.702499 79.389999 25.606499
-41.622002 79.509003 25.514999
-41.247002 68.9935 25.852501
-41.285 69.112999 25.913
-41.217499 69.163498 25.815498
-41.339664 69.422333 25.933668
-41.235001 69.470001 25.792
-41.3125 69.653 25.898251
-41.208 69.533997 25.764
-41.416 69.988998 25.983999
-41.238499 69.862 25.7775
-41.321667 70.058327 25.871
-41.36375 70.32975 25.89225
-41.37775 70.584503 25.89325
-41.395 70.811501 25.907001
-41.392334 71.091667 25.873331
-41.415997 71.361404 25.881601
-41.4095 71.611496 25.855499
-41.373001 71.750999 25.809
-41.518002 72.001999 25.959999
-41.436249 72.099251 25.845749
-41.547001 72.404999 25.957001
-41.439499 72.398499 25.816502
-41.542999 72.637001 25.944
-41.42033 72.657997 25.777666
-41.473 72.751999 25.858999
-41.546333 73.095001 25.907831
-41.477501 73.178001 25.807499
-41.475998 73.416504 25.782001
-41.4655 73.759506 25.7505
-41.587002 74.647667 25.824999
-41.606003 75.3685 25.815001
-41.466335 69.377335 26.126001
-41.448997 69.548996 26.084499
-41.463665 69.851997 26.068001
-41.487251 70.083748 26.103249
-41.514999 70.499001 26.077999
-41.469002 70.314003 26.035
-41.510498 70.665497 26.083
-41.467999 70.531998 26.01
-41.519001 70.956001 26.066999
-41.522499 71.1455 26.047501
-41.543499 71.640503 26.029999
-41.561001 71.899498 26.029999
-41.567001 72.208 26.018
-41.580002 72.349998 26.028
-41.584 72.709 26.004999
