# .PCD v0.7 - Point Cloud Data file format
VERSION 0.7
FIELDS x y z
SIZE 4 4 4
TYPE F F F
COUNT 1 1 1
WIDTH 64
HEIGHT 1
VIEWPOINT -18.2321 96.2205 -1.35163 -0.354149 -0.00701479 0.0211809 0.934923
POINTS 64
DATA ascii
100.28387 -66.097 16.098
100.3879 -65.968201 16.1332
100.66549 -65.870697 16.1073
100.27067 -66.087166 16.351835
100.374 -65.965668 16.369001
100.63512 -65.876434 16.369438
100.77233 -65.760994 16.360001
100.26617 -66.068169 16.580168
100.403 -65.965622 16.599001
100.6255 -65.863167 16.585415
100.761 -65.752998 16.528
100.78201 -65.666168 16.567167
100.3124 -66.024597 16.872799
100.42725 -65.953751 16.829998
100.60534 -65.848778 16.862223
100.7405 -65.737999 16.910999
100.78799 -65.669998 16.824501
100.30433 -66.025673 17.057665
100.38925 -65.955124 17.109125
100.60638 -65.835999 17.123499
100.7655 -65.753998 17.172001
100.74 -65.737 17.041
100.25825 -66.030243 17.31525
100.37801 -65.936401 17.354601
100.59026 -65.849251 17.390375
100.7665 -65.753006 17.3435
100.736 -65.733002 17.466
100.3365 -65.932373 17.601875
100.605 -65.823837 17.639139
100.731 -65.677994 17.7215
100.34791 -65.925415 17.85475
100.5863 -65.842003 17.8857
100.19859 -66.109421 18.136168
100.39388 -65.892502 18.119186
100.62033 -65.803497 18.151834
100.21033 -65.976669 18.418499
100.3525 -65.896698 18.375101
100.61874 -65.805794 18.382957
100.18533 -65.977661 18.651335
100.36889 -65.886665 18.639389
100.61491 -65.788101 18.6383
100.18175 -65.974503 18.886501
100.36057 -65.880165 18.904585
100.5826 -65.785805 18.851
100.178 -65.970665 19.164001
100.35167 -65.873329 19.146111
100.5778 -65.781403 19.1
100.1485 -65.949997 19.373001
100.36033 -65.877914 19.39875
100.59167 -65.780159 19.349501
100.13651 -65.94175 19.606499
100.34312 -65.877876 19.650501
100.5835 -65.789833 19.566668
100.12866 -65.935333 19.841
100.35729 -65.859787 19.864786
100.54767 -65.797333 19.868334
100.13275 -65.936501 20.1215
100.3465 -65.865669 20.10475
100.502 -65.766998 20.031
100.34263 -65.849121 20.337376
100.54134 -65.759003 20.261333
100.481 -65.719337 20.422335
100.297 -65.826996 20.561501
100.41199 -65.682251 20.616688
