# .PCD v0.7 - Point Cloud Data file format
VERSION 0.7
FIELDS x y z
SIZE 4 4 4
TYPE F F F
COUNT 1 1 1
WIDTH 73
HEIGHT 1
VIEWPOINT -18.2321 96.2205 -1.35163 -0.354149 -0.00701479 0.0211809 0.934923
POINTS 73
DATA ascii
-46.335133 28.171432 9.1945667
-46.317486 28.358158 9.1286335
-46.206333 28.409084 9.2197495
-46.288666 28.55575 9.1080828
-46.217735 28.63759 9.1617146
-46.169876 28.79421 9.1122913
-46.081066 29.120251 9.1381187
-46.016865 29.301701 9.1387501
-46.397652 28.167551 9.3682499
-46.351891 28.357597 9.374918
-46.218498 28.462 9.2605
-46.2855 28.546665 9.4046249
-46.217102 28.671776 9.3423557
-46.166145 28.809267 9.3513041
-46.07951 29.137955 9.3487959
-46.014374 29.321793 9.4055824
-45.982468 29.402088 9.3675003
-45.900032 29.637533 9.3792381
-46.421806 28.18638 9.6277065
-46.354839 28.36887 9.6357908
-46.278736 28.577951 9.6349592
-46.215775 28.709473 9.6510277
-46.172474 28.809368 9.6284199
-46.08379 29.148067 9.6336803
-46.017391 29.331568 9.6498899
-45.984459 29.414709 9.5960836
-45.899506 29.652328 9.6041136
-46.421249 28.203917 9.8111668
-46.586502 28.362669 9.9333334
-46.371658 28.337658 9.8137245
-46.285767 28.576599 9.8134193
-46.2164 28.737799 9.8351994
-46.386002 28.989 9.908
-46.180668 28.799723 9.7988329
-46.107479 29.181612 9.8668079
-46.095554 29.34989 9.8358889
-45.984001 29.431656 9.8336563
-46.144501 29.6075 9.8754997
-45.915432 29.628117 9.8292255
-45.868999 29.763435 9.8715
-46.42918 28.214123 10.142405
-46.361317 28.385054 10.146826
-46.289654 28.584259 10.128952
-46.221375 28.731485 10.146098
-46.18581 28.807474 10.123833
-46.099026 29.137564 10.130674
-46.029339 29.327026 10.155448
-45.981842 29.455376 10.100367
-45.91259 29.640158 10.132726
-45.8755 29.757502 10.147625
-46.345058 28.206667 10.371667
-46.196987 28.138855 10.420415
-46.316242 28.380341 10.362539
-46.117367 28.38175 10.419638
-46.290604 28.567959 10.31823
-46.074566 28.631254 10.386071
-45.979671 28.6565 10.454
-46.148563 28.825718 10.324751
-45.929321 28.872744 10.408196
-46.075233 29.13876 10.315046
-45.858795 29.112572 10.401128
-46.014 29.317501 10.319
-45.897343 29.36796 10.324637
-45.710491 29.397978 10.421116
-45.846447 29.643847 10.311681
-45.670601 29.603683 10.388849
-46.34856 28.212439 10.655562
-46.170197 28.102966 10.524334
-46.098587 28.336334 10.531417
-45.907337 29.374941 10.644702
-45.852451 29.603886 10.654203
-45.702 29.639 10.505
-45.813213 29.752121 10.632857
