# .PCD v0.7 - Point Cloud Data file format
VERSION 0.7
FIELDS x y z
SIZE 4 4 4
TYPE F F F
COUNT 1 1 1
WIDTH 64
HEIGHT 1
VIEWPOINT -18.2321 96.2205 -1.35163 -0.354149 -0.00701479 0.0211809 0.934923
POINTS 64
DATA ascii
12.114313 68.637939 2.112
12.348288 68.620781 2.1275749
12.605451 68.654495 2.1193099
11.935367 68.610031 2.3751166
12.114876 68.642174 2.3558333
12.373322 68.609474 2.3822713
12.62413 68.658798 2.37287
11.966374 68.632996 2.6106248
12.115208 68.645294 2.6479583
12.347643 68.629463 2.6168931
12.617084 68.669167 2.6486669
11.971027 68.645912 2.851361
12.116938 68.65538 2.8921249
12.365023 68.636261 2.8703001
12.620001 68.680069 2.9021125
11.988777 68.652779 3.1455002
12.11779 68.661461 3.1361668
12.38754 68.638466 3.154541
12.65667 68.692871 3.148356
11.996 68.661255 3.38625
12.121088 68.673553 3.3899124
12.374417 68.642883 3.3739915
12.62544 68.697662 3.366015
11.996666 68.668671 3.6216667
12.101191 68.680717 3.6288235
12.399402 68.637909 3.6346893
12.603905 68.693321 3.6428211
12.107067 68.693962 3.8700442
12.347825 68.676926 3.8742576
12.594166 68.716423 3.8560278
12.606 68.750999 3.9779999
12.132824 68.700371 4.1061206
12.354786 68.678078 4.0951481
12.714833 68.71817 4.1975002
12.849 68.713997 4.1919999
13.38398 68.743805 4.1992292
12.395188 68.63765 4.396729
12.630017 68.70488 4.3680668
12.908799 68.71434 4.3494272
13.053388 68.637566 4.3662505
13.312467 68.737442 4.3597665
13.436833 68.7565 4.3858337
12.354702 68.669014 4.6329446
12.629159 68.697884 4.6284771
12.934222 68.70089 4.6087222
13.151278 68.691757 4.6210837
13.326333 68.735832 4.7018332
13.415158 68.75676 4.6138711
12.39292 68.671913 4.8771982
12.635365 68.686264 4.8618436
12.881482 68.694183 4.887176
13.134463 68.727859 4.8272262
13.178375 68.75975 4.9377503
12.350475 68.700951 5.112175
12.628572 68.716621 5.1215358
12.819041 68.674515 5.135396
13.032042 68.746544 5.1515002
12.95425 68.754745 5.1175003
12.347935 68.693306 5.3635073
12.615758 68.695625 5.3692036
12.886472 68.710709 5.332221
12.892 68.757751 5.4514999
12.371777 68.680557 5.6236186
12.59732 68.705292 5.612236
