# .PCD v0.7 - Point Cloud Data file format
VERSION 0.7
FIELDS x y z
SIZE 4 4 4
TYPE F F F
COUNT 1 1 1
WIDTH 214
HEIGHT 1
VIEWPOINT -18.2321 96.2205 -1.35163 -0.354149 -0.00701479 0.0211809 0.934923
POINTS 214
DATA ascii
-32.883926 66.912361 8.3475714
-32.63644 66.916664 8.3642864
-32.406864 66.866547 8.3536139
-32.127571 66.908363 8.3563814
-31.908861 66.916946 8.3544722
-31.642593 66.905876 8.3485622
-31.352146 66.928902 8.3485203
-31.102945 66.944725 8.3865004
-32.865444 66.902618 8.5988331
-32.624832 66.90638 8.6356192
-32.408279 66.868858 8.6035061
-32.143864 66.915527 8.6171389
-31.86323 66.924522 8.6254168
-31.623055 66.909157 8.6445837
-31.370157 66.92955 8.6186066
-32.845665 66.9216 8.906167
-32.646336 66.911003 8.8166666
-32.403168 66.872063 8.8800001
-32.127125 66.923065 8.8791037
-31.842901 66.928391 8.9014339
-31.61433 66.907799 8.9014673
-31.395271 66.949272 8.9043541
-31.622999 67.010002 8.8290005
-32.876564 66.925606 9.0934
-32.64592 66.92617 9.1017771
-32.31535 66.89164 9.1407776
-32.109528 66.930054 9.1395273
-31.852545 66.932762 9.0998755
-31.610352 66.918106 9.1406002
-31.395 66.957932 9.1033125
-32.854191 66.937691 9.3679285
-32.585232 66.932899 9.3628492
-32.340973 66.87468 9.3584585
-32.137669 66.940948 9.3956537
-31.883728 66.942665 9.3585835
-31.624716 66.917862 9.3703814
-31.410917 66.967216 9.3578062
-31.344 67.014 9.4549999
-31.1675 67.007004 9.4095001
-32.886749 66.947334 9.6683331
-32.629055 66.948029 9.6425829
-32.354198 66.874733 9.6500168
-32.147636 66.945831 9.6199007
-31.867643 66.957146 9.6509047
-31.613546 66.921135 9.596797
-31.407084 66.971138 9.6336813
-31.281 67.001999 9.7010002
-32.820774 66.95208 9.8660555
-32.599335 66.949333 9.8881674
-32.35107 66.881279 9.8990717
-32.085983 66.953621 9.8742008
-31.890499 66.960999 9.9060001
-31.648279 66.905724 9.8581667
-31.383722 66.980675 9.893445
-31.171333 66.985664 9.8805561
-31.851 67.001999 9.7690001
-31.5425 67.008003 9.8295002
-31.115625 67.015373 9.8780003
-32.881668 66.96907 10.084367
-32.639267 66.95787 10.108134
-32.360878 66.881256 10.12125
-32.10725 66.961113 10.125861
-31.883633 66.962173 10.0938
-31.634132 66.913986 10.120984
-31.392626 66.99263 10.11725
-32.898998 67.007004 10.129
-32.279999 67.046997 10.017
-31.910999 67.001999 10.189
-31.57 67.002998 10.192
-31.329626 67.008377 10.10625
-31.145613 67.012337 10.156222
-32.646526 66.962929 10.355952
-32.350998 66.90625 10.368726
-32.116169 66.965775 10.370733
-31.869125 66.975967 10.372
-31.620687 66.93914 10.344536
-31.434 66.996666 10.33
-32.664001 67.003998 10.281
-32.321999 67.021004 10.42
-31.573 67.007004 10.458
-31.347025 67.01017 10.340357
-32.863068 66.981865 10.620633
-32.624168 66.97467 10.639601
-32.376171 66.906006 10.608556
-32.13586 66.974861 10.651112
-31.877502 66.978004 10.612916
-31.649626 66.929573 10.616959
-32.784 67.000999 10.703
-32.298336 67.007332 10.635334
-31.348583 67.017258 10.631167
-32.645 66.985046 10.850832
-32.386192 66.921623 10.868292
-32.124416 66.984642 10.872167
-31.8871 66.993301 10.881501
-31.65078 66.940178 10.857422
-32.829498 67.006752 10.898
-32.67025 67.006744 10.85975
-32.316002 67.004997 10.842
-32.206001 67.008003 10.76
-31.92 67.014503 10.827
-31.559002 67.005249 10.908
-31.358809 67.021652 10.876382
-32.830502 66.996162 11.095668
-32.625069 66.993668 11.160899
-32.397377 66.934708 11.13698
-32.134666 66.994576 11.134666
-31.973 66.998001 11.039
-31.661167 66.94133 11.152542
-32.859367 67.007133 11.119401
-32.649002 67.024498 11.059999
-32.317833 67.007332 11.1155
-32.094666 67.008331 11.2075
-31.90011 67.004219 11.087611
-31.564751 67.014999 11.120501
-31.347124 67.036087 11.073959
-32.414051 66.947701 11.3802
-32.202999 66.997002 11.289
-31.680801 66.941948 11.361349
-32.86557 67.009506 11.3911
-32.646 67.007828 11.352055
-32.319 67.007996 11.41275
-32.150501 67.010445 11.405473
-31.898956 67.015129 11.386501
-31.563667 67.048103 11.396443
-31.358604 67.038521 11.362
-32.548 66.995003 11.503
-32.411167 66.950676 11.600417
-31.6759 66.95845 11.629684
-32.843113 67.014503 11.574889
-32.609665 67.013229 11.591222
-32.325832 67.020332 11.658834
-32.121418 67.022499 11.609333
-31.902334 67.034668 11.589667
-31.599251 67.027748 11.65325
-31.388983 67.055984 11.621367
-32.385296 66.93795 11.875648
-31.706501 66.967796 11.8727
-32.877087 67.026787 11.834945
-32.645168 67.029259 11.865167
-32.411373 67.017868 11.859375
-32.154377 67.033623 11.863937
-31.903934 67.038101 11.8423
-31.600832 67.031914 11.86475
-31.387056 67.05603 11.862834
-32.3899 66.945297 12.116899
-31.685625 66.9645 12.129375
-32.631355 67.030647 12.153625
-32.334801 67.0317 12.096933
-32.097122 67.038437 12.112438
-31.884417 67.041451 12.114667
-31.624985 67.040215 12.14232
-31.413067 67.057632 12.124735
-32.3871 66.961594 12.3765
-31.674749 66.970001 12.402
-32.635536 67.050766 12.397333
-32.315998 67.036377 12.361375
-32.111336 67.046661 12.394166
-31.854748 67.046875 12.394314
-31.589687 67.060066 12.410749
-31.397665 67.068436 12.3661
-32.400333 66.965752 12.654083
-32.117001 66.987999 12.7145
-31.693624 66.977005 12.677
-32.627449 67.0411 12.6009
-32.305653 67.038406 12.62275
-32.091938 67.049805 12.619667
-31.856833 67.042702 12.596278
-31.573202 67.066696 12.63785
-31.37435 67.067947 12.623549
-31.187122 67.077545 12.592709
-32.610001 66.987 12.949
-32.378605 66.967651 12.884085
-32.168667 66.982002 12.935333
-31.833599 66.982239 12.917433
-31.681 66.978752 12.88225
-32.60453 67.039421 12.845416
-32.375889 67.015831 12.929278
-32.122585 67.037041 12.847042
-31.854586 67.022247 12.862416
-31.60239 67.02948 12.8772
-31.405777 67.063004 12.848973
-32.551167 66.987831 13.140834
-32.38575 66.972321 13.109568
-32.115749 66.980499 13.033
-31.893167 66.981934 13.092999
-31.609833 66.986084 13.146
-32.646698 67.0495 13.114801
-32.319 67.037941 13.161316
-32.104126 67.059937 13.155126
-31.885651 67.048416 13.159683
-31.602253 67.026657 13.114799
-31.387403 67.073074 13.150381
-32.659439 66.981628 13.362813
-32.343498 66.979004 13.264999
-32.12064 66.984222 13.374889
-31.521 66.996002 13.328
-32.597401 67.047806 13.35885
-32.366135 67.049706 13.406134
-32.138416 67.024582 13.376334
-31.87587 67.061844 13.378393
-31.6047 67.054153 13.38885
-32.105251 66.9935 13.6225
-31.891251 66.994003 13.682501
-31.625168 66.995506 13.586833
-32.612877 67.059517 13.64173
-32.370014 67.056953 13.639736
-32.162708 67.065666 13.573459
-31.883764 67.050911 13.583652
-31.628082 67.058449 13.639021
-32.440498 66.996002 13.784
-32.199337 66.996216 13.807111
-32.366611 67.071327 13.873444
-32.107189 67.0597 13.860781
-31.887201 67.070145 13.872856
