# .PCD v0.7 - Point Cloud Data file format
VERSION 0.7
FIELDS x y z
SIZE 4 4 4
TYPE F F F
COUNT 1 1 1
WIDTH 425
HEIGHT 1
VIEWPOINT -18.2321 96.2205 -1.35163 -0.354149 -0.00701479 0.0211809 0.934923
POINTS 425
DATA ascii
-8.4680004 -51.247002 18.997999
-11.501 -55.647999 19.177
-11.0415 -54.988503 19.168499
-10.828292 -54.660126 19.189835
-10.618367 -54.406532 19.17108
-10.544001 -54.225918 19.193834
-10.304259 -53.903736 19.171391
-10.2506 -53.741604 19.239799
-10.093968 -53.627758 19.136677
-10.0505 -53.449001 19.230999
-9.8139448 -53.148804 19.180584
-9.5431108 -52.697834 19.214167
-9.533 -52.408001 19.243
-9.3369141 -52.378956 19.20529
-9.309 -52.021999 19.242001
-9.1304026 -52.113846 19.15589
-9.2519999 -51.919998 19.241001
-9.0645828 -51.924274 19.220356
-9.0264997 -51.6035 19.24
-8.8508892 -51.642265 19.176462
-9.0574999 -51.467499 19.237
-8.9328575 -51.448719 19.238287
-8.639616 -51.383842 19.156902
-8.7639999 -51.0495 19.222
-8.6080971 -51.116203 19.205263
-8.4659996 -51.109879 19.162876
-8.8255005 -50.9795 19.2435
-8.6891575 -50.945576 19.237545
-8.4093332 -50.960278 19.209223
-8.5360003 -50.592999 19.191999
-8.4397497 -50.585125 19.200375
-8.4149523 -50.47517 19.225859
-16.004999 -61.716 19.423
-15.805083 -61.387833 19.453667
-15.574541 -61.15937 19.412098
-15.372166 -60.868237 19.395416
-15.29475 -60.658127 19.417667
-15.088096 -60.374718 19.403643
-15.028999 -60.208 19.474499
-14.8205 -59.911747 19.442875
-14.629917 -59.639328 19.413723
-14.528168 -59.419498 19.469833
-14.332027 -59.164082 19.418724
-14.122782 -58.907726 19.388103
-14.037056 -58.647831 19.470945
-13.923971 -58.624809 19.347221
-13.860518 -58.372906 19.43437
-13.836166 -58.189667 19.474333
-13.616584 -58.130978 19.357048
-13.576067 -57.909363 19.446634
-13.414101 -57.838215 19.335066
-13.8025 -57.6395 19.488499
-13.636416 -57.685333 19.485582
-13.333 -57.642998 19.396126
-13.2185 -57.54525 19.3195
-13.519 -57.251999 19.469
-13.346133 -57.351166 19.471033
-13.138454 -57.360031 19.370848
-13.502 -57.179001 19.49
-13.45525 -57.208496 19.48325
-13.066713 -57.161999 19.406073
-12.932304 -57.092052 19.336695
-13.138667 -56.830231 19.464832
-12.861389 -56.875252 19.389288
-12.738875 -56.807709 19.317085
-13.144 -56.736336 19.474001
-12.8085 -56.6395 19.4345
-12.837395 -56.369198 19.45056
-12.111116 -56.370216 19.405132
-12.05025 -56.113998 19.423
-11.922933 -56.132149 19.36455
-12.111556 -55.837933 19.449778
-11.853972 -55.904419 19.409807
-11.694 -55.863972 19.309834
-11.782499 -55.5355 19.411999
-11.626453 -55.637718 19.354328
-11.488667 -55.590332 19.289
-11.836815 -55.396282 19.429714
-11.652131 -55.424023 19.442472
-11.413108 -55.408749 19.327179
-11.24125 -55.260754 19.2565
-11.573251 -55.034752 19.4025
-11.351028 -55.121025 19.382118
-11.179146 -55.063271 19.311064
-11.551624 -54.931126 19.421625
-11.43338 -54.933632 19.423031
-11.093405 -54.892941 19.331594
-10.929667 -54.761002 19.263
-11.301333 -54.602169 19.428167
-11.103786 -54.591335 19.382048
-10.920771 -54.616116 19.33975
-11.169467 -54.461769 19.417601
-10.811 -54.401997 19.333666
-10.712749 -54.334564 19.297501
-11.024 -54.117001 19.48
-10.853333 -54.090523 19.388975
-10.633193 -54.122505 19.351902
-10.88302 -53.938084 19.436897
-10.557334 -53.85817 19.345165
-10.4128 -53.885998 19.287601
-10.7885 -53.703499 19.4895
-10.64352 -53.612808 19.416683
-10.393288 -53.656548 19.380527
-10.191 -53.575165 19.280167
-10.563875 -53.3545 19.484249
-10.400001 -53.394333 19.429499
-10.117944 -53.348423 19.296465
-9.9602499 -53.276497 19.252501
-10.348991 -53.150543 19.397432
-10.165648 -53.160042 19.391993
-9.9295502 -53.140697 19.29735
-10.3 -52.950001 19.47175
-10.128687 -52.839996 19.415001
-9.8685207 -52.823334 19.296001
-9.7248125 -52.800377 19.339251
-10.067604 -52.652443 19.431459
-9.906353 -52.642559 19.391907
-9.599 -52.589779 19.270222
-9.8800993 -52.3927 19.437502
-9.6410599 -52.321239 19.299477
-9.3935356 -52.327332 19.295805
-9.7891665 -52.219585 19.446833
-9.6197834 -52.152508 19.407383
-9.4569998 -52.226002 19.349001
-9.5648746 -51.882 19.440918
-9.3776932 -51.841831 19.322926
-9.1803331 -51.893635 19.332979
-9.3607912 -51.647385 19.419458
-9.1805 -51.637501 19.3305
-9.3199997 -51.48867 19.449669
-9.1444473 -51.370789 19.366535
-8.8978176 -51.395897 19.313524
-9.0749998 -51.13987 19.4244
-8.9018335 -51.116169 19.32939
-8.5370007 -51.030666 19.324667
-8.8516331 -50.861786 19.400723
-8.6834869 -50.881664 19.325848
-8.776 -50.707001 19.407
-8.6585579 -50.617306 19.384317
-8.5745974 -50.422749 19.411875
-8.4129667 -50.362259 19.34848
-16.587 -62.344666 19.672667
-16.448999 -62.344002 19.622999
-16.779999 -62.059502 19.702499
-16.580967 -62.068665 19.679468
-16.394968 -62.130116 19.621418
-16.2465 -62.02 19.5415
-16.66548 -61.956898 19.70644
-16.318832 -61.939831 19.650665
-16.17025 -61.848587 19.578333
-16.362223 -61.619297 19.679777
-16.114159 -61.629673 19.639242
-15.975499 -61.579498 19.560499
-16.403 -61.4935 19.6705
-16.039 -61.325001 19.629999
-15.896834 -61.368748 19.584333
-16.088715 -61.122578 19.67462
-15.883436 -61.160858 19.663082
-15.698599 -61.1054 19.571701
-15.773 -60.832001 19.625
-15.60675 -60.864498 19.592657
-15.466625 -60.829124 19.528374
-15.824771 -60.659187 19.666334
-15.698925 -60.702675 19.668125
-15.395187 -60.640312 19.564188
-15.555556 -60.347553 19.631224
-15.350389 -60.361591 19.605001
-15.207333 -60.345833 19.554667
-15.530444 -60.183441 19.695168
-15.453834 -60.200668 19.695168
-15.116166 -60.157028 19.560694
-14.97 -60.041332 19.518333
-15.325916 -59.897247 19.67
-15.127851 -59.847183 19.615891
-14.915067 -59.860069 19.576466
-15.261999 -59.652 19.7435
-15.157249 -59.66296 19.682415
-14.8097 -59.645599 19.549099
-14.67825 -59.572502 19.516251
-15.023334 -59.386665 19.663935
-14.882586 -59.343029 19.643845
-14.661667 -59.430969 19.590799
-14.483 -59.266998 19.5175
-14.861167 -59.091251 19.714169
-14.623067 -59.075768 19.553566
-14.409084 -59.074085 19.554792
-14.789833 -58.916836 19.729445
-14.623911 -58.900146 19.634136
-14.401333 -58.942669 19.578667
-14.247334 -58.850334 19.525
-14.598267 -58.685139 19.7146
-14.351034 -58.566631 19.576466
-14.152343 -58.600079 19.556028
-14.503 -58.478001 19.691
-14.349249 -58.424896 19.653376
-14.1715 -58.359749 19.597
-13.984 -58.477001 19.506001
-14.301 -58.185001 19.677999
-14.140083 -58.085358 19.636333
-13.896152 -58.118179 19.566486
-13.737499 -58.081001 19.5345
-14.100367 -57.915901 19.694736
-13.920834 -57.894165 19.625166
-13.738 -57.813 19.504
-14.019 -57.744999 19.68
-13.853745 -57.612617 19.643398
-13.654805 -57.628555 19.577972
-13.446 -57.668999 19.511999
-13.822001 -57.463997 19.667
-13.654271 -57.318958 19.626209
-13.2705 -57.283001 19.549999
-13.212 -57.293499 19.529499
-13.573665 -57.138119 19.658905
-13.401919 -57.141655 19.598728
-13.381374 -56.875961 19.645229
-13.144125 -56.762501 19.549749
-12.968001 -56.845406 19.523199
-13.305112 -56.677776 19.711166
-13.112186 -56.648148 19.588646
-13.082305 -56.385632 19.661697
-12.889506 -56.326241 19.565416
-12.267 -56.4585 19.588501
-12.1915 -56.395 19.535
-12.874203 -56.136814 19.629835
-12.799583 -55.910919 19.705027
-12.644351 -55.91716 19.664396
-12.344479 -55.894165 19.657894
-12.108816 -55.788647 19.549767
-11.9335 -55.864002 19.5135
-12.254333 -55.712585 19.669249
-12.134905 -55.609337 19.636549
-11.962 -55.532001 19.552
-12.04125 -55.410423 19.652332
-11.91201 -55.324944 19.599792
-11.6645 -55.377335 19.533167
-11.835796 -55.114822 19.642473
-11.70675 -55.094002 19.55475
-11.7655 -54.9095 19.7355
-11.645605 -54.870483 19.611544
-11.4437 -54.882999 19.5268
-11.553533 -54.660534 19.670368
-11.444061 -54.608845 19.592564
-11.348482 -54.392517 19.638634
-11.153762 -54.360165 19.52887
-11.299473 -54.194225 19.728724
-11.145779 -54.103237 19.625313
-11.067536 -53.904842 19.670084
-10.918271 -53.852459 19.578125
-10.847417 -53.619099 19.63973
-10.745334 -53.547333 19.541668
-10.807556 -53.405445 19.730446
-10.67231 -53.393147 19.607954
-10.604067 -53.177872 19.67626
-10.452466 -53.092335 19.579
-10.547999 -52.954403 19.745199
-10.357894 -52.865498 19.639084
-10.202 -52.761002 19.504
-10.292042 -52.685417 19.685938
-10.161531 -52.6119 19.603251
-10.089999 -52.400051 19.669773
-9.9471693 -52.332954 19.576197
-10.0625 -52.247498 19.71825
-9.8749332 -52.120384 19.637617
-9.7103996 -52.033501 19.535599
-9.8427334 -51.939262 19.703739
-9.647707 -51.830952 19.604868
-9.7697506 -51.749252 19.731499
-9.600399 -51.600758 19.675903
-9.4460554 -51.601196 19.559807
-9.5487499 -51.429001 19.71525
-9.39042 -51.365688 19.631153
-9.2266674 -51.254333 19.565334
-9.3329 -51.152985 19.696035
-9.141943 -51.107937 19.569824
-9.1166 -50.885498 19.659746
-8.9397421 -50.834835 19.550976
-9.0428324 -50.685085 19.707335
-8.8746176 -50.618752 19.6082
-8.836874 -50.411766 19.68326
-8.6571999 -50.343597 19.57847
-17.092751 -62.313751 19.906084
-16.957666 -62.357666 19.85
-17.008999 -62.186501 19.906002
-16.901834 -62.08617 19.876083
-16.813416 -61.895706 19.91971
-16.6625 -61.902832 19.818666
-16.637182 -61.638062 19.899757
-16.390999 -61.531998 19.777
-16.533167 -61.432331 19.934334
-16.37838 -61.385956 19.822191
-16.350111 -61.175556 19.906778
-16.161007 -61.06493 19.79388
-16.109301 -60.848053 19.871283
-15.936 -60.761002 19.753
-16.026001 -60.655998 19.898125
-15.912238 -60.596001 19.835644
-15.699 -60.555 19.774
-15.850796 -60.377243 19.915871
-15.683444 -60.302555 19.768446
-15.647041 -60.114002 19.865459
-15.4605 -60.068501 19.759499
-15.58 -59.925201 19.939932
-15.444833 -59.846584 19.830748
-15.53 -59.747002 19.987
-15.350474 -59.641499 19.882904
-15.237 -59.5555 19.758499
-15.295083 -59.455254 19.950333
-15.17123 -59.375191 19.866417
-15.088809 -59.165668 19.926023
-14.943889 -59.090221 19.812389
-15.0145 -58.938499 19.974501
-14.867791 -58.854195 19.901854
-14.808683 -58.62553 19.959448
-14.671965 -58.651367 19.828535
-14.61489 -58.397858 19.924391
-14.457938 -58.342667 19.815334
-14.561334 -58.202168 19.967501
-14.371649 -58.124855 19.858932
-14.216667 -58.028336 19.751667
-14.325033 -57.912403 19.931868
-14.145534 -57.830864 19.831135
-14.250999 -57.734497 19.955
-14.102259 -57.635757 19.894907
-13.963 -57.580334 19.820333
-14.063834 -57.412003 19.966002
-13.872213 -57.367493 19.844084
-13.731501 -57.266998 19.780998
-13.849694 -57.143997 19.934807
-13.674472 -57.096279 19.824751
-13.7605 -56.959503 19.956001
-13.613529 -56.879807 19.883446
-13.443166 -56.798832 19.786333
-13.535 -56.646626 19.935207
-13.390691 -56.594929 19.848001
-13.2415 -56.542 19.751999
-13.348786 -56.400288 19.910309
-13.159125 -56.358089 19.784876
-13.275499 -56.243999 19.912498
-13.141233 -56.134747 19.872301
-12.94525 -56.07325 19.764
-13.057734 -55.901001 19.927866
-12.917548 -55.854 19.837906
-12.616042 -55.802189 19.818167
-12.429626 -55.837246 19.794416
-12.84425 -55.63039 19.895277
-12.662545 -55.649334 19.905138
-12.381619 -55.616512 19.86475
-12.222667 -55.545334 19.781002
-12.318111 -55.412888 19.918722
-12.168896 -55.374771 19.821312
-12.088321 -55.141605 19.869642
-11.946139 -55.102673 19.780167
-12.043 -54.978001 19.952
-11.873806 -54.867706 19.840321
-11.725666 -54.758003 19.777334
-11.810166 -54.677418 19.884418
-11.695002 -54.602745 19.833349
-11.600657 -54.399506 19.862553
-11.43875 -54.318752 19.76775
-11.5225 -54.249001 19.869999
-11.3885 -54.102539 19.848833
-11.301834 -53.962002 19.828667
-11.196056 -53.838734 19.817099
-11.082625 -53.642101 19.820015
-10.942 -53.547604 19.7582
-11.005 -53.466999 19.872999
-10.890214 -53.355782 19.818785
-10.779667 -53.174835 19.818001
-10.69475 -53.089939 19.8055
-10.5716 -52.874733 19.810236
-10.439401 -52.753803 19.756601
-10.387195 -52.623074 19.797194
-10.277 -52.466 19.8095
-10.203583 -52.371376 19.779125
-10.07175 -52.150871 19.804564
-9.9770002 -52.008999 19.802
-9.8699999 -51.836498 19.796667
-9.6990004 -51.604622 19.793625
-9.5706244 -51.419998 19.76025
-9.3565006 -51.095001 19.768501
-9.2069998 -50.887001 19.757999
-17.172556 -62.285889 20.055334
-17.149738 -62.086758 20.126478
-16.962999 -62.021999 20.014
-17.072166 -61.895664 20.156832
-16.917233 -61.852562 20.060932
-17.018999 -61.727001 20.216
-16.86981 -61.622498 20.134357
-16.718832 -61.574001 20.044668
-16.753168 -61.399002 20.1495
-16.617332 -61.332081 20.07225
-16.6022 -61.174397 20.142799
-16.426834 -61.126083 20.031334
-16.366417 -60.887833 20.091793
-16.249001 -60.842499 20.021
-16.309166 -60.695667 20.151501
-16.174406 -60.60574 20.081667
-16.076668 -60.399502 20.103251
-15.92925 -60.317249 20.026249
-16.018999 -60.237999 20.149
-15.889375 -60.141312 20.079687
-15.8045 -59.932999 20.124001
-15.691583 -59.887745 20.0495
-15.578142 -59.65057 20.080095
-15.459499 -59.561501 20.02
-15.37707 -59.339195 20.074142
-15.264668 -59.136333 20.088167
-15.190876 -59.061001 20.06175
-15.0951 -58.906654 20.062201
-14.967 -58.756001 20.028999
-14.888333 -58.603668 20.045334
-14.799666 -58.439777 20.062555
-14.694 -58.2925 20.049
-14.609667 -58.166084 20.045918
-14.476 -58.028 20.002001
-14.396001 -57.854 20.030279
-14.251 -57.645 20.021999
-14.208 -57.563499 20.034
-14.094666 -57.397167 20.0345
-13.906667 -57.120167 20.020668
-13.769 -56.912998 20.028
-13.705 -56.817001 20
-13.645 -56.745998 20.033001
-13.265 -56.203999 20.011
-12.529 -55.709999 20.007
