# .PCD v0.7 - Point Cloud Data file format
VERSION 0.7
FIELDS x y z
SIZE 4 4 4
TYPE F F F
COUNT 1 1 1
WIDTH 249
HEIGHT 1
VIEWPOINT -18.2321 96.2205 -1.35163 -0.354149 -0.00701479 0.0211809 0.934923
POINTS 249
DATA ascii
26.904188 73.967003 28.898125
27.094894 73.971817 28.897167
27.355001 73.978668 28.896667
27.642824 73.982964 28.867802
27.880333 73.993454 28.847542
28.014 73.998505 28.844
27.924334 74.002007 28.9405
28.130749 74.006546 28.916599
28.374109 74.009224 28.869654
28.615601 74.0187 28.882898
28.858377 74.022797 28.856178
26.085516 73.454948 29.126684
26.325333 73.721169 29.149
26.456331 73.935501 29.150499
26.898209 73.975128 29.143293
27.093513 73.982796 29.149626
27.35747 73.98951 29.13554
27.617363 73.996307 29.103333
27.669668 74.00325 29.16375
27.879999 74.004951 29.116333
28.138027 74.015747 29.148434
28.420935 74.025269 29.125534
28.6495 74.032127 29.102501
28.892437 74.038605 29.094917
26.085501 73.457001 29.377197
26.202333 73.545998 29.368334
26.3305 73.740494 29.3445
26.419333 73.889671 29.408834
26.646341 73.976089 29.364311
26.899126 73.98381 29.404186
27.119883 73.99202 29.408199
27.356499 73.994064 29.323439
27.127001 74 29.499001
27.409668 74.00367 29.431665
27.6488 74.006897 29.340229
27.890432 74.016357 29.385805
28.139 74.023827 29.399305
28.386251 74.032547 29.3685
28.64205 74.041031 29.34927
28.894417 74.049194 29.35375
26.081583 73.469002 29.642832
26.223833 73.612007 29.653999
26.387299 73.844498 29.6133
26.648905 73.989029 29.631311
26.8866 73.994804 29.6185
27.085335 73.996002 29.553167
26.948999 74.003998 29.691
27.182875 74.006165 29.636208
27.390625 74.010872 29.643209
27.648594 74.01754 29.619335
27.890585 74.027702 29.648863
28.140907 74.033997 29.634096
28.395813 74.040192 29.595377
28.655781 74.050812 29.636499
28.895294 74.058044 29.646166
26.084999 73.484879 29.914124
26.23875 73.658997 29.8965
26.418299 73.906502 29.878
26.597313 73.994934 29.837189
27.878458 73.914337 29.910706
26.670551 74.003883 29.9263
26.906599 74.009315 29.84643
27.133501 74.014191 29.86347
27.393126 74.023811 29.899689
27.58045 74.029099 29.872501
27.834049 74.030602 29.851099
28.145691 74.043968 29.879726
28.398264 74.051888 29.855112
28.629107 74.06218 29.876143
28.895939 74.071152 29.893291
26.0905 73.489891 30.1315
26.060001 73.502502 30.248501
26.252501 73.703499 30.15
26.377501 73.851883 30.124374
27.733667 73.862671 30.180166
27.840824 73.83876 30.084614
28.036667 73.825005 30.143667
26.47175 74.003746 30.195
26.662624 74.009972 30.135624
26.90575 74.018059 30.107687
27.135813 74.026154 30.127563
27.383051 74.034348 30.1362
28.1695 74.055542 30.082203
28.409149 74.064354 30.12945
28.647615 74.072151 30.118917
28.902584 74.08017 30.10025
26.093748 73.506958 30.395
26.255251 73.717255 30.390249
26.35075 73.822502 30.39325
27.854713 73.826401 30.357862
28.041 73.783997 30.254
26.47225 74.010498 30.38625
26.641001 74.020363 30.379038
26.907125 74.027588 30.355501
27.162882 74.036095 30.380215
27.408649 74.043442 30.36845
27.754499 74.051498 30.466499
28.188801 74.066948 30.401453
28.393702 74.074196 30.36385
28.612556 74.080208 30.355431
28.863531 74.088654 30.365284
26.077555 73.461113 30.5805
26.217333 73.565002 30.622002
26.253 73.713997 30.5
26.344332 73.809662 30.592001
27.835449 73.898453 30.623652
26.4755 74.022995 30.596001
26.643406 74.029938 30.637127
26.917551 74.038353 30.626049
27.164248 74.045174 30.62318
27.397564 74.051125 30.589249
27.62718 74.058929 30.619001
27.767666 74.064667 30.643333
28.160786 74.070915 30.624189
28.394665 74.083191 30.633915
28.604252 74.091408 30.632849
28.858648 74.100533 30.62583
26.092249 73.528084 30.855583
26.317501 73.805992 30.883801
27.824451 73.921043 30.871948
26.476501 74.032501 30.853003
26.662022 74.039978 30.882677
26.8883 74.077957 30.873348
27.399431 74.062439 30.857847
27.586349 74.067703 30.87475
27.758917 74.072006 30.856583
28.136082 74.081856 30.863867
28.410055 74.097107 30.885918
28.599569 74.100304 30.852116
28.854605 74.108955 30.876907
26.096169 73.546165 31.14625
26.312166 73.814331 31.150665
27.842194 73.91658 31.127085
26.4785 74.04467 31.143
26.658812 74.051407 31.11993
26.838001 74.056755 31.10725
27.207632 74.126701 31.118465
27.588848 74.080597 31.127802
27.762251 74.088249 31.149416
28.155888 74.099052 31.143137
28.400194 74.107162 31.114777
28.591251 74.11235 31.121302
28.856817 74.119957 31.098181
25.9965 73.505997 31.415001
26.098249 73.558006 31.388374
26.31575 73.830124 31.39525
27.8335 73.931702 31.373316
26.480249 74.055756 31.38525
26.627157 74.061005 31.360313
26.839834 74.06884 31.350668
27.192331 74.147751 31.347834
27.353695 74.084274 31.352081
27.619196 74.093872 31.382584
27.764874 74.099869 31.39325
28.125395 74.108337 31.368502
28.386103 74.117699 31.372
28.614599 74.123329 31.365601
28.854649 74.131187 31.357601
25.999001 73.517998 31.545
26.091188 73.563438 31.596626
26.329199 73.857101 31.621302
27.85145 73.933716 31.637518
26.48225 74.067001 31.612499
26.610872 74.074631 31.657248
26.808384 74.080841 31.622885
27.192875 74.15538 31.590876
27.366077 74.094803 31.637274
27.607927 74.10218 31.609501
27.76589 74.1092 31.64739
28.157072 74.121216 31.619822
28.384863 74.130745 31.643694
28.610001 74.134689 31.592377
28.839323 74.144638 31.624392
27.11928 74.400284 31.629387
26.086294 73.574959 31.855375
26.3155 73.857895 31.877701
27.840662 73.947983 31.867559
26.484167 74.078163 31.857
26.589937 74.082939 31.894938
26.799625 74.09362 31.898624
27.202736 74.152878 31.851141
27.381702 74.105896 31.870266
27.582952 74.113152 31.866001
27.768501 74.121841 31.898834
28.128836 74.131538 31.850668
28.340294 74.140251 31.90004
28.632156 74.147964 31.86903
28.89942 74.155632 31.851999
27.112299 74.391197 31.889801
26.089083 73.589706 32.115833
26.341801 73.905594 32.1325
27.852709 73.951126 32.132053
26.486334 74.092339 32.150501
26.624512 74.096611 32.135696
26.817852 74.107697 32.121849
27.198132 74.165474 32.128635
27.392502 74.116501 32.099499
27.603216 74.125717 32.130333
27.766556 74.131561 32.144669
28.088703 74.143448 32.127296
28.331373 74.151184 32.13319
28.653 74.160461 32.138184
28.902084 74.16925 32.147663
27.842947 73.965584 32.376942
26.457666 74.07 32.414837
26.583143 74.102852 32.353527
26.796 74.120049 32.363655
27.209518 74.157089 32.366005
27.394333 74.127792 32.3615
27.62594 74.137703 32.384773
27.800501 74.144005 32.373501
28.0961 74.153397 32.371498
28.357357 74.162613 32.381714
28.631107 74.170753 32.377712
28.903875 74.179939 32.394501
26.489166 74.112495 32.640163
26.586899 74.117371 32.628235
26.815414 74.129417 32.635082
27.195564 74.161041 32.595207
27.396936 74.141495 32.609127
27.630632 74.148796 32.623749
27.784201 74.0746 32.618801
28.657093 74.182716 32.632534
28.906542 74.191963 32.642414
26.959249 74.2715 32.604752
26.4865 74.111 32.863998
26.604898 74.126053 32.8722
26.858387 74.135262 32.860813
27.150909 74.146378 32.855156
27.397959 74.14933 32.854626
28.635893 74.194283 32.87368
28.90844 74.203003 32.890503
27.703201 73.89827 33.1077
26.840446 74.146255 33.132904
27.150845 74.156738 33.139771
27.3915 74.163498 33.131901
27.614054 74.126076 33.147331
28.611425 74.202438 33.11087
28.888536 74.215004 33.143242
27.690968 73.9189 33.420334
26.864786 74.158318 33.378288
27.150595 74.164177 33.380081
27.411051 74.174194 33.371399
27.611389 74.11879 33.390263
27.466375 73.952248 33.702499
27.640766 73.873299 33.630032
27.405573 74.140976 33.643715
27.53125 74.109421 33.584
27.62925 73.80661 33.85014
