# .PCD v0.7 - Point Cloud Data file format
VERSION 0.7
FIELDS x y z
SIZE 4 4 4
TYPE F F F
COUNT 1 1 1
WIDTH 59
HEIGHT 1
VIEWPOINT -18.2321 96.2205 -1.35163 -0.354149 -0.00701479 0.0211809 0.934923
POINTS 59
DATA ascii
22.1287 -15.6668 4.894629
22.368027 -15.422491 4.9636345
22.56678 -15.287519 4.9113626
22.660192 -15.159771 4.9418712
22.801638 -15.040484 4.9223967
22.921028 -14.923321 4.9221506
23.058502 -14.801093 4.9161539
23.183146 -14.684311 4.9204922
23.333252 -14.554362 4.9103174
23.436659 -14.443195 4.9160647
23.562893 -14.335871 4.9112811
23.681665 -14.214398 4.927958
23.847864 -14.087467 4.8877945
22.126984 -15.619657 5.0993419
21.613533 -15.356967 5.1431336
21.877905 -15.354332 5.1476169
22.102194 -15.358474 5.1504302
22.372505 -15.370633 5.1079693
22.547794 -15.253501 5.0471473
21.647074 -15.115467 5.1316667
22.144787 -15.113452 5.1378098
22.407885 -15.100554 5.1407042
22.628485 -15.135869 5.1014037
22.779596 -15.03329 5.0805507
21.865072 -14.864716 5.1206169
22.124584 -14.88166 5.1251335
22.420877 -14.873469 5.1294665
22.643515 -14.87832 5.1318097
22.884808 -14.884888 5.0948925
23.038044 -14.793189 5.0819225
22.150885 -14.632319 5.1140928
22.36561 -14.631001 5.1153665
22.575939 -14.634374 5.1170669
22.876705 -14.630489 5.1201477
23.152348 -14.635653 5.0973883
23.311327 -14.543136 5.0726323
22.369593 -14.333548 5.1003542
22.634245 -14.359546 5.1043954
22.86335 -14.387624 5.1093001
23.131624 -14.392591 5.1112137
23.382469 -14.385204 5.0870166
23.540201 -14.304234 5.0820971
22.619436 -14.123948 5.093236
22.877848 -14.157891 5.096858
23.113047 -14.15104 5.0969887
23.375408 -14.129406 5.0975933
23.627474 -14.147956 5.0827475
23.822031 -14.048841 5.0596008
22.892681 -13.865424 5.0797763
23.146986 -13.895763 5.0838337
23.368521 -13.838387 5.0816765
23.614477 -13.878733 5.0853925
23.880999 -13.856758 5.0788574
23.11125 -13.653706 5.0704942
23.364901 -13.608891 5.0692887
23.620615 -13.614491 5.0723419
23.89113 -13.633477 5.0765281
23.367929 -13.371119 5.0579605
23.613678 -13.38111 5.0607762
