# .PCD v0.7 - Point Cloud Data file format
VERSION 0.7
FIELDS x y z
SIZE 4 4 4
TYPE F F F
COUNT 1 1 1
WIDTH 222
HEIGHT 1
VIEWPOINT -18.2321 96.2205 -1.35163 -0.354149 -0.00701479 0.0211809 0.934923
POINTS 222
DATA ascii
-31.561501 -57.765999 0.227
-32.054001 -57.562668 0.24866667
-31.817001 -57.611332 0.23433332
-31.612833 -57.639999 0.21983333
-31.487 -57.580002 0.193
-32.458504 -57.293503 0.24000001
-32.132751 -57.353249 0.22225
-31.901667 -57.383667 0.20566666
-31.5945 -57.38625 0.19
-31.253 -57.250999 0.16599999
-33.230999 -57.016998 0.249
-32.620667 -57.03767 0.22566666
-32.255501 -57.1255 0.20999999
-32.189999 -57.192001 0.22
-31.924 -57.230999 0.198
-31.640499 -57.151001 0.1805
-33.222 -56.910999 0.23899999
-32.842499 -56.855003 0.22149999
-32.7295 -56.933502 0.22350001
-31.334 -56.832001 0.15000001
-31.165249 -56.877251 0.14300001
-33.005001 -56.721001 0.215
-32.880833 -56.661331 0.20766665
-32.407249 -56.556503 0.2095
-31.331501 -56.660248 0.13850001
-31.2045 -56.741001 0.1375
-33.122391 -56.318222 0.23583333
-32.959999 -56.371002 0.1875
-32.490501 -56.378998 0.168
-31.958 -56.41 0.146
-31.604 -56.339752 0.12900001
-31.271999 -56.341999 0.116
-35.934998 -56.039501 0.24675
-34.501999 -56.175999 0.222
-34.400002 -56.232002 0.22499999
-34.134003 -56.105 0.206
-33.536247 -56.024498 0.21158335
-33.430416 -56.099003 0.21383332
-33.107502 -56.159389 0.18883336
-32.903332 -56.093998 0.176
-32.705498 -56.161003 0.16249999
-31.302 -56.165001 0.108
-30.912834 -56.069 0.089833334
-36.344002 -55.790001 0.241
-36.023998 -55.902 0.23899999
-35.952499 -55.959999 0.2395
-35.324329 -55.837666 0.21466666
-35.25 -55.936001 0.221
-34.535 -55.880001 0.204
-33.803001 -55.820999 0.2315
-33.63665 -55.894653 0.194125
-33.149944 -55.901279 0.15544444
-32.702599 -55.886402 0.15790001
-37.403999 -55.613998 0.243
-37.09 -55.524498 0.23100001
-36.558502 -55.649002 0.234
-36.421333 -55.644333 0.23133333
-36.049999 -55.512001 0.206
-35.8965 -55.552002 0.20625
-35.602169 -55.569168 0.19733334
-35.356335 -55.574329 0.19133334
-34.844498 -55.59 0.18349999
-33.825001 -55.596668 0.15566666
-33.694748 -55.623749 0.18700001
-33.347 -55.598499 0.139
-33.232498 -55.623001 0.1375
-37.368 -55.392998 0.22749999
-37.1255 -55.4515 0.22400001
-36.859001 -55.472 0.22400001
-36.424999 -55.409 0.20999999
-36.119751 -55.298 0.19125
-35.699997 -55.438999 0.19049999
-35.3125 -55.427002 0.17699999
-35.021751 -55.379501 0.16775
-34.403999 -55.364998 0.16850001
-33.847 -55.328335 0.13083333
-33.58625 -55.358498 0.141
-33.386501 -55.375874 0.12125
-33.030998 -55.421001 0.113
-37.09 -55.190002 0.19999999
-36.825001 -55.000999 0.182
-36.683998 -55.042999 0.184
-36.392502 -55.141998 0.21175
-36.107002 -55.138 0.18099999
-35.988998 -55.16 0.18000001
-35.588249 -55.032501 0.16
-35.2985 -55.024498 0.1505
-35.129002 -55.103001 0.14766668
-34.977001 -55.032001 0.14
-34.159775 -55.072998 0.16822223
-33.931 -55.244999 0.127
-33.082333 -55.156338 0.089333333
-32.915333 -55.136002 0.083000004
-37.054001 -54.887501 0.20999999
-36.939667 -54.894665 0.17733334
-36.370998 -54.984001 0.17200001
-36.111 -54.931 0.162
-35.696999 -54.966999 0.15899999
-35.330334 -54.935669 0.14366667
-34.98 -54.905499 0.13
-34.619625 -54.8825 0.151375
-34.291 -54.881001 0.109
-33.406998 -54.866501 0.077500001
-32.705669 -54.929668 0.058666665
-36.683502 -54.584499 0.15200001
-35.667667 -54.669331 0.13866667
-35.347836 -54.542835 0.13266666
-35.113998 -54.529499 0.108
-34.928001 -54.574253 0.101
-35.361 -54.451 0.111
-35.060997 -54.446999 0.096500002
-35.375252 -54.140999 0.089249998
-35.1385 -54.118004 0.1317143
-34.884335 -54.102665 0.062666662
-34.658127 -54.079628 0.052624997
-35.8745 -53.827999 0.083499998
-35.666 -53.837666 0.115
-35.424999 -53.889 0.068999998
-35.137249 -53.79425 0.052000001
-35.383499 -53.655502 0.064500004
-35.0695 -53.711998 0.043499999
-35.62867 -53.337166 0.041333333
-33.327 -60.392998 0.49250001
-33.112335 -60.4245 0.48899999
-33.621002 -60.127998 0.48650002
-33.315002 -60.175499 0.47750002
-33.105999 -60.242001 0.47999999
-33.599503 -59.946999 0.472
-33.186001 -59.791 0.45699999
-33.360001 -59.715 0.456
-33.19733 -59.616669 0.44766665
-32.857498 -59.5425 0.43849999
-32.570499 -59.5937 0.42409998
-32.397858 -59.672955 0.41652378
-33.205498 -59.267998 0.42025
-32.880501 -59.349403 0.40870005
-32.655499 -59.456596 0.40149999
-32.362999 -59.285 0.361
-33.375 -59.056999 0.40700001
-33.057999 -59.219002 0.39950001
-32.830334 -59.186001 0.38366666
-32.257999 -59.189999 0.352
-34.022999 -58.755001 0.41299999
-33.346497 -58.861 0.38800001
-32.986 -58.827499 0.36900002
-32.685001 -58.887001 0.35699999
-34.0905 -58.6395 0.41150001
-33.889999 -58.710999 0.40099999
-33.092999 -58.556999 0.35600001
-32.954002 -58.60125 0.40474999
-32.700748 -58.699249 0.34549999
-33.043499 -58.326 0.33750001
-32.660248 -58.29525 0.31924999
-32.768833 -58.203838 0.36266664
-32.037498 -58.056499 0.28850001
-31.820333 -58.098003 0.28566667
-33.370705 -57.884502 0.37893334
-33.1805 -57.905506 0.37290001
-32.629623 -57.78775 0.35874999
-32.030502 -57.855 0.27450001
-31.872499 -57.956001 0.27950001
-31.550999 -57.844002 0.257
-33.634499 -57.571503 0.36149999
-32.984001 -57.514999 0.27700001
-32.709 -57.691002 0.285
-32.352749 -57.64925 0.26875001
-32.007 -57.666 0.259
-32.945499 -57.448997 0.27200001
-32.75 -57.481998 0.26899999
-32.434502 -57.441498 0.25749999
-33.143669 -57.191833 0.26016667
-33.7915 -56.8545 0.34325001
-33.306999 -56.782001 0.31600001
-37.613998 -56.527 0.32600001
-34.654003 -56.661335 0.27188888
-34.39225 -56.7285 0.35325
-34 -56.595001 0.32800001
-33.678001 -56.506001 0.36699998
-33.372002 -56.600754 0.30299997
-37.879002 -56.487 0.32300001
-36.358002 -56.460999 0.28799999
-34.828999 -56.355 0.25
-34.363945 -56.406387 0.35305557
-34.176334 -56.334499 0.289
-33.893913 -56.398415 0.31208336
-33.662636 -56.472095 0.36526665
-33.405502 -56.454498 0.29350001
-38.014999 -56.014999 0.28799999
-37.77 -56.243999 0.30399999
-37.630997 -56.079002 0.28650001
-37.372002 -56.075001 0.28099999
-36.782001 -56.042 0.26899999
-36.646999 -56.19175 0.301875
-36.252502 -56.038002 0.25650001
-36.154999 -56.016998 0.25400001
-33.751999 -56.182999 0.28
-33.57225 -56.12775 0.27525002
-37.759003 -55.9725 0.391
-37.685001 -55.945 0.278
-37.452 -55.938999 0.27399999
-37.100002 -55.833832 0.40549996
-36.813999 -55.907001 0.28
-36.701 -55.827999 0.259
-36.345001 -55.965 0.25400001
-37.546501 -55.5755 0.29549998
-37.424999 -55.730999 0.25299999
-36.9305 -55.691498 0.34349999
-37.466 -55.456497 0.38850001
-37.030998 -54.894249 0.37175
-34.402 -54.804001 0.49399999
-33.327332 -60.585999 0.59833336
-33.193169 -60.636753 0.57108337
-33.5355 -60.275501 0.50199997
-33.382053 -60.344273 0.56891662
-33.246002 -60.452499 0.58050001
-33.537834 -60.195335 0.58149999
-33.464336 -60.227669 0.56833339
-37.240002 -56.297001 0.55199999
-33.685902 -56.480968 0.62933332
-37.752998 -55.964001 0.55599999
-36.922001 -55.736 0.50800002
-37.356667 -56.164001 0.85700005
