# .PCD v0.7 - Point Cloud Data file format
VERSION 0.7
FIELDS x y z
SIZE 4 4 4
TYPE F F F
COUNT 1 1 1
WIDTH 86
HEIGHT 1
VIEWPOINT -18.2321 96.2205 -1.35163 -0.354149 -0.00701479 0.0211809 0.934923
POINTS 86
DATA ascii
-13.713 66.997002 16.531
-17.135445 67.033112 16.668333
-16.9615 67.013 16.620499
-16.62648 67.03479 16.674187
-16.389967 67.044647 16.668142
-16.140055 67.060959 16.676222
-15.908624 67.056931 16.660084
-15.5285 67.097 16.712
-15.382034 67.095863 16.685432
-15.159199 67.073486 16.662323
-14.869951 67.093933 16.664566
-14.623611 67.088707 16.654982
-14.323416 67.116203 16.674831
-14.113215 67.094986 16.644123
-13.894323 67.127686 16.653807
-13.6162 67.108803 16.63595
-13.376477 67.144028 16.66412
-17.04475 67.107162 16.886
-16.882364 67.076233 16.865324
-16.615334 67.091667 16.895834
-16.364944 67.088531 16.87837
-16.093033 67.106369 16.859882
-15.92575 67.091248 16.848249
-15.611916 67.12571 16.88479
-15.399834 67.122559 16.830353
-15.115891 67.107079 16.879631
-14.894919 67.150894 16.862436
-14.597168 67.160698 16.892633
-14.364333 67.140327 16.867111
-14.157931 67.160599 16.871498
-13.8715 67.219002 16.916
-13.668048 67.177307 16.844
-15.016 67.275002 16.993999
-14.396 67.382004 16.916
-14.076 67.257004 16.993999
-13.649 67.339996 16.886
-17.077999 67.128601 17.103601
-16.843542 67.083984 17.109417
-16.602968 67.086838 17.137375
-16.408751 67.105751 17.098623
-16.116501 67.111496 17.116501
-15.864 67.091003 17.153
-15.619967 67.105637 17.125067
-15.4165 67.135002 17.004
-15.087479 67.147133 17.15498
-14.881427 67.149765 17.134666
-14.640332 67.15332 17.145681
-14.253 67.165001 17.009001
-14.074201 67.178329 17.176533
-13.658453 67.190445 17.128691
-16.459 67.302002 17.212
-15.244 67.393997 17.096001
-13.652 67.341003 17.17
-16.868418 67.101006 17.4195
-16.589899 67.135605 17.378901
-16.35062 67.11348 17.37962
-16.053001 67.147003 17.473999
-15.916167 67.127663 17.411667
-15.61615 67.146065 17.422533
-15.371687 67.147247 17.4245
-15.125291 67.159775 17.383343
-14.8702 67.185539 17.440001
-14.627901 67.171295 17.31945
-15.508 67.254997 17.447001
-17.2535 66.949997 17.66
-17.1236 66.957901 17.691799
-16.861498 66.9505 17.674833
-16.556499 66.971497 17.672001
-16.115499 66.979752 17.702499
-15.919001 66.990005 17.7075
-15.498 66.995003 17.688999
-17.33016 67.037354 17.578791
-17.140388 67.046516 17.607626
-16.904793 67.034729 17.600952
-16.646418 67.077248 17.578501
-16.375416 67.076897 17.569895
-16.103226 67.083221 17.589714
-15.907534 67.087494 17.590454
-15.644623 67.078011 17.627426
-15.370784 67.104446 17.586369
-15.153081 67.090126 17.639481
-14.865022 67.135468 17.592089
-16.144167 67.066666 17.770666
-15.923 67.061493 17.75975
-15.6115 67.103745 17.782749
-15.356833 67.091331 17.764334
