# .PCD v0.7 - Point Cloud Data file format
VERSION 0.7
FIELDS x y z
SIZE 4 4 4
TYPE F F F
COUNT 1 1 1
WIDTH 66
HEIGHT 1
VIEWPOINT -18.2321 96.2205 -1.35163 -0.354149 -0.00701479 0.0211809 0.934923
POINTS 66
DATA ascii
68.744507 98.723495 -1.6029999
68.89283 98.61734 -1.605
69.078247 98.541 -1.5697501
68.399498 98.929504 -1.584875
68.598831 98.805504 -1.5848333
68.907997 98.804001 -1.661
67.912338 99.144997 -1.5896665
68.153671 99.053833 -1.604
67.651993 99.338005 -1.6058571
67.886002 99.411003 -1.701
69.189003 98.484001 -1.342
69.255333 98.417336 -1.3566667
68.856209 98.661659 -1.3958334
69.08709 98.540298 -1.365
68.417236 98.927841 -1.3838667
68.596291 98.822289 -1.3913572
67.908089 99.188591 -1.3484999
68.142426 99.058067 -1.3908571
67.451248 99.479507 -1.39025
67.650452 99.354576 -1.3935
67.751495 99.281494 -1.2839999
69.209167 98.485664 -1.0918332
69.268501 98.436005 -1.1465
68.860779 98.668221 -1.1513333
69.077103 98.552101 -1.1445
68.214996 98.998001 -1.146
68.396042 98.950974 -1.1219333
68.623688 98.823189 -1.1254375
67.907501 99.195206 -1.1059999
68.129181 99.066498 -1.1477916
67.450279 99.448616 -1.143889
67.63443 99.354149 -1.1192857
67.782669 99.28183 -1.0866666
69.240494 98.476501 -0.84450001
69.279495 98.451996 -0.85300004
68.742004 98.718994 -0.84749997
68.859001 98.678604 -0.90185004
69.126999 98.53936 -0.85499996
68.439003 98.933907 -0.87870008
68.604996 98.831619 -0.87393749
67.938751 99.198746 -0.87137496
68.134216 99.077637 -0.88492858
68.322998 99.002502 -0.92050004
67.635941 99.371811 -0.86825001
67.827301 99.277092 -0.83459997
69.287506 98.463501 -0.57974994
68.739998 98.716003 -0.72100002
68.869926 98.679428 -0.65107143
69.121422 98.550217 -0.63135719
68.403503 98.95871 -0.63970828
68.626991 98.833748 -0.62216669
68.773003 98.764 -0.55400002
67.957253 99.203003 -0.58175004
68.146179 99.081551 -0.63368332
68.331001 99.014 -0.542
67.622871 99.410072 -0.60753703
67.8255 99.271332 -0.61366659
68.898163 98.682159 -0.39095831
68.44239 98.961494 -0.36150002
68.623436 98.858047 -0.37068748
68.77475 98.765999 -0.40575001
67.946999 99.188011 -0.35099998
68.092316 99.128563 -0.37762505
68.294754 99.036995 -0.41424999
67.634338 99.409531 -0.37246665
67.833626 99.275879 -0.37937501
