# .PCD v0.7 - Point Cloud Data file format
VERSION 0.7
FIELDS x y z
SIZE 4 4 4
TYPE F F F
COUNT 1 1 1
WIDTH 101
HEIGHT 1
VIEWPOINT -18.2321 96.2205 -1.35163 -0.354149 -0.00701479 0.0211809 0.934923
POINTS 101
DATA ascii
-47.982712 2.1734169 19.307919
-48.076946 2.3931668 19.477112
-47.871746 2.8766334 19.435488
-47.705311 2.8995335 19.316889
-47.82375 3.1176665 19.451834
-47.624752 3.1141667 19.303112
-47.768402 3.2566001 19.446402
-48.68 2.217 19.688
-48.445 2.2409999 19.599001
-48.6245 2.2665 19.7285
-48.391399 2.3067334 19.649935
-48.177521 2.4180799 19.613716
-48.131805 2.6081872 19.644028
-48.04892 2.8625476 19.645191
-47.97295 2.8898749 19.550377
-48.016125 3.099875 19.715876
-47.927822 3.122607 19.599344
-47.862812 3.3627892 19.621717
-48.858669 2.1986666 19.800001
-48.844776 2.2585557 19.877001
-48.692875 2.33725 19.890875
-48.411598 2.4308999 19.860302
-48.2957 2.6242898 19.903393
-48.222393 2.6356113 19.79339
-48.262833 2.8393335 19.966167
-48.174618 2.8783803 19.846134
-48.11137 3.1148534 19.869707
-48.048756 3.3545337 19.902468
-49.055 2.2495 20.061501
-49.042671 2.3405001 20.195168
-48.884106 2.3798749 20.102896
-48.70575 2.4506249 20.082874
-48.487999 2.48 20.007
-48.571667 2.5513334 20.172998
-48.416328 2.6346076 20.103497
-48.360771 2.8677001 20.137691
-48.302502 3.1095111 20.170576
-48.208759 3.1638036 20.051424
-48.275875 3.3185 20.239876
-48.164177 3.3937738 20.105268
-48.099537 3.633074 20.129154
-49.0294 2.4420002 20.342001
-48.984001 2.42575 20.25
-49.025375 2.514375 20.420624
-48.848862 2.5648334 20.360306
-48.580498 2.6803665 20.343533
-48.554272 2.8177335 20.419916
-48.466064 2.9345167 20.336411
-48.504002 3.089 20.475
-48.408752 3.1288035 20.351515
-48.3465 3.3730268 20.380825
-48.240669 3.4456668 20.253834
-48.293419 3.6064 20.42135
-48.194881 3.6716137 20.299253
-48.189259 3.8884282 20.408737
-48.155502 4.0320001 20.4515
-49.040199 2.6418333 20.629599
-48.890877 2.70575 20.598751
-48.932999 2.77 20.716
-48.658859 2.8892868 20.616104
-48.568886 3.1255023 20.602985
-48.551617 3.3643215 20.694292
-48.453182 3.3982639 20.559755
-48.526001 3.5410001 20.747665
-48.415306 3.6416698 20.629444
-48.324142 3.8845279 20.614925
-48.274853 4.123167 20.664875
-48.219601 4.0925999 20.564249
-49.041252 2.7265 20.7675
-49.039333 2.8121998 20.8776
-48.852203 2.9026501 20.8685
-48.735664 2.9253335 20.760666
-48.790211 3.0945222 20.929224
-48.691154 3.1580787 20.806612
-48.678646 3.3831906 20.899796
-48.585079 3.6355934 20.886898
-48.465172 3.7486668 20.763334
-48.533833 3.8661668 20.927832
-48.45689 3.9074798 20.830341
-48.392544 4.1386456 20.854006
-48.351082 4.333488 20.89275
-49.035778 2.9242222 21.078001
-48.855999 2.9690001 21.009001
-49.034 3.0139999 21.198999
-48.891731 3.1359563 21.114912
-48.818954 3.384726 21.117523
-48.804169 3.593611 21.208168
-48.709431 3.6569388 21.091536
-48.65786 3.8750718 21.122427
-48.565086 4.1366019 21.132362
-48.482201 4.2032499 21.032
-49.023998 3.1252918 21.338165
-48.970348 3.2033501 21.305696
-49.072289 3.3515415 21.45771
-48.918049 3.4020698 21.31455
-49.017334 3.5970001 21.466417
-48.868607 3.657486 21.357706
-48.833584 3.8162715 21.361017
-48.708584 3.94275 21.298834
-49.067665 3.175 21.615915
-48.922802 3.7475998 21.552801
