# .PCD v0.7 - Point Cloud Data file format
VERSION 0.7
FIELDS x y z
SIZE 4 4 4
TYPE F F F
COUNT 1 1 1
WIDTH 597
HEIGHT 1
VIEWPOINT -18.2321 96.2205 -1.35163 -0.354149 -0.00701479 0.0211809 0.934923
POINTS 597
DATA ascii
-38.21825 -112.4765 14.921249
-38.361683 -112.35528 15.126273
-38.199001 -112.488 15.131333
-38.081356 -112.58728 15.338429
-38.382427 -112.32735 15.38625
-38.194 -112.47625 15.40325
-38.087624 -112.55125 15.604876
-38.33564 -112.35578 15.622499
-38.19067 -112.46933 15.634334
-38.640682 -112.11146 15.624728
-38.466499 -112.2485 15.651501
-41.868168 -109.62521 15.583133
-41.674999 -109.71175 15.6155
-41.936001 -109.469 15.692
-38.084667 -112.54501 15.856667
-38.329861 -112.34861 15.916583
-38.187 -112.46 15.90625
-38.599915 -112.13691 15.855499
-38.465 -112.24467 15.862332
-40.356003 -110.75301 15.9695
-40.138996 -110.869 15.964333
-40.596333 -110.58367 15.970333
-40.456001 -110.695 15.986
-40.860165 -110.354 15.948667
-41.271 -110.03 15.921
-41.099998 -110.159 15.960501
-41.546623 -109.78012 15.886875
-41.408669 -109.93433 15.977
-41.853626 -109.59612 15.827749
-41.695667 -109.6885 15.846583
-42.120998 -109.35217 15.867273
-41.944 -109.49267 15.860001
-38.081001 -112.53613 16.0875
-38.322666 -112.34333 16.142
-38.183998 -112.45351 16.097
-38.667088 -112.07538 16.133875
-38.461502 -112.238 16.093
-38.894333 -111.9025 16.147249
-39.333569 -111.56393 16.139429
-39.150574 -111.69657 16.165571
-39.626751 -111.33068 16.137062
-39.463585 -111.44009 16.192833
-40.044998 -111.016 16.059
-39.878223 -111.13333 16.110556
-39.736 -111.23399 16.141499
-40.303497 -110.8005 16.0525
-40.128288 -110.91805 16.15262
-40.582523 -110.55724 16.114048
-40.403736 -110.69283 16.164532
-40.858166 -110.35004 16.087332
-40.684753 -110.4735 16.18725
-41.265751 -110.01575 16.108002
-41.143055 -110.11428 16.133335
-40.998001 -110.25 16.024
-41.570778 -109.77711 16.075445
-41.413502 -109.89059 16.155584
-41.839333 -109.55967 16.094002
-41.701752 -109.66688 16.093374
-42.084003 -109.35983 16.115665
-41.948002 -109.46817 16.083834
-42.239376 -109.25 16.108625
-38.071602 -112.5354 16.377001
-38.319 -112.33517 16.414999
-38.169167 -112.45617 16.357832
-38.638283 -112.08607 16.389357
-38.458 -112.229 16.365
-39.013 -111.80225 16.3815
-38.889709 -111.89117 16.408501
-39.314873 -111.54988 16.399
-39.145416 -111.682 16.413666
-39.60894 -111.31469 16.408314
-39.448753 -111.44125 16.399834
-39.844631 -111.13345 16.370758
-40.142452 -110.89131 16.374249
-40.542 -110.57492 16.410334
-40.395168 -110.68842 16.417294
-40.83736 -110.34471 16.347715
-40.6889 -110.46379 16.3818
-41.259663 -110.00199 16.335665
-41.112427 -110.11814 16.369213
-40.9505 -110.246 16.397249
-41.557835 -109.77011 16.363501
-41.392582 -109.89575 16.382418
-41.834202 -109.5486 16.367199
-41.697334 -109.65717 16.341999
-42.130169 -109.31109 16.366667
-41.967777 -109.438 16.356001
-42.264 -109.20367 16.414
-42.235001 -109.24 16.252499
-38.040501 -112.54575 16.58675
-38.334858 -112.31215 16.634857
-38.1828 -112.43414 16.658201
-38.649048 -112.06433 16.623096
-38.453999 -112.21967 16.631334
-39.042 -111.758 16.647499
-38.864555 -111.89639 16.648888
-39.310333 -111.54017 16.650166
-39.174 -111.64616 16.644167
-39.605583 -111.30667 16.635666
-39.438667 -111.43634 16.645998
-39.858803 -111.1098 16.628798
-40.12735 -110.8904 16.623749
-40.546947 -110.55656 16.641001
-40.386929 -110.68472 16.642286
-40.820995 -110.347 16.618601
-40.672298 -110.4673 16.619999
-41.122139 -110.09686 16.634144
-40.947876 -110.24088 16.584126
-41.564751 -109.76025 16.591919
-41.36459 -109.90627 16.644411
-41.822899 -109.54641 16.6479
-41.698902 -109.6404 16.6224
-42.111725 -109.31693 16.608973
-41.956253 -109.43959 16.584915
-42.262333 -109.20033 16.663332
-38.036999 -112.53867 16.860334
-38.344749 -112.29112 16.920124
-38.194168 -112.41026 16.915251
-38.5928 -112.09869 16.864201
-38.450001 -112.21 16.911999
-38.87418 -111.87751 16.905964
-39.307877 -111.535 16.901749
-39.129276 -111.67628 16.908445
-39.601749 -111.29875 16.91025
-39.454704 -111.4166 16.8727
-39.85815 -111.0968 16.87495
-40.150539 -110.85816 16.901894
-39.946999 -110.997 16.993999
-40.549168 -110.538 16.908333
-40.375313 -110.67175 16.902437
-40.799801 -110.338 16.881001
-40.677998 -110.43831 16.880301
-41.08567 -110.11797 16.857767
-40.944168 -110.23318 16.854666
-41.549168 -109.75675 16.81675
-41.342278 -109.91928 16.862
-41.825748 -109.5305 16.8405
-41.640785 -109.66321 16.890356
-42.11375 -109.31337 16.857
-41.934967 -109.42744 16.886234
-42.259998 -109.196 16.829
-42.197502 -109.19826 16.91325
-38.035751 -112.5365 17.092251
-38.341335 -112.283 17.151001
-38.17506 -112.41688 17.156
-38.599834 -112.08208 17.129084
-38.446835 -112.20233 17.136168
-39.134335 -111.78199 17.216833
-38.886333 -111.85629 17.15254
-39.358284 -111.58813 17.142141
-39.155251 -111.65425 17.085249
-39.785 -111.2625 17.203999
-39.623287 -111.35101 17.11907
-39.470001 -111.359 17.042
-40.050663 -111.04266 17.153666
-39.884148 -111.08593 17.119215
-40.337582 -110.82117 17.108084
-40.166668 -110.952 17.108002
-40.612858 -110.604 17.125856
-40.458 -110.711 17.08
-41.025501 -110.29401 17.132833
-40.864925 -110.344 17.107357
-40.725998 -110.4765 17.081001
-41.309666 -110.061 17.066999
-41.159599 -110.17039 17.093199
-41.587749 -109.84251 17.09325
-41.442337 -109.96217 17.112499
-42.030998 -109.514 17.139999
-41.899082 -109.59133 17.090418
-41.691399 -109.62439 17.130001
-42.170403 -109.3843 17.061199
-38.032333 -112.52833 17.366001
-38.332832 -112.28084 17.390417
-38.166168 -112.40908 17.405832
-38.569561 -112.09425 17.364939
-38.442501 -112.1935 17.416
-39.291 -111.857 17.271999
-39.132751 -111.77899 17.381001
-38.883499 -111.84978 17.394125
-39.785 -111.26375 17.39325
-40.049999 -111.04225 17.38475
-39.900814 -111.07018 17.363501
-40.6675 -110.55676 17.382
-41.0145 -110.3075 17.415001
-40.836811 -110.33175 17.37394
-40.729 -110.48583 17.361334
-41.619003 -109.8185 17.362167
-41.853622 -109.60825 17.37425
-41.677601 -109.63729 17.3671
-38.029331 -112.523 17.634169
-38.313499 -112.28683 17.657167
-38.172626 -112.39725 17.63625
-38.574562 -112.07813 17.628498
-38.404251 -112.21675 17.62075
-39.1208 -111.7693 17.638102
-38.896332 -111.82966 17.636391
-38.749252 -111.9385 17.703499
-38.988998 -111.746 17.745001
-39.781502 -111.256 17.623001
-40.045666 -111.03233 17.656334
-39.881287 -111.08293 17.617357
-40.672501 -110.572 17.658001
-41.011166 -110.30017 17.636833
-40.856426 -110.32442 17.607859
-40.727501 -110.485 17.585499
-41.614998 -109.80949 17.584499
-41.849625 -109.59975 17.603874
-41.688797 -109.6217 17.631201
-38.027 -112.51849 17.915501
-38.2985 -112.28575 17.8885
-38.149788 -112.40379 17.876358
-38.571712 -112.07471 17.881786
-38.407703 -112.2021 17.873999
-39.131599 -111.757 17.857899
-38.871147 -111.83665 17.890352
-38.7295 -111.9505 17.892
-38.987999 -111.745 17.826
-39.779999 -111.254 17.750999
-40.074833 -111.0275 17.879833
-39.87215 -111.09795 17.868851
-40.127998 -110.998 17.944
-41.007999 -110.2935 17.916
-40.828564 -110.31444 17.874561
-40.725834 -110.48251 17.864834
-41.611164 -109.80234 17.861666
-41.860001 -109.58966 17.857
-41.682335 -109.63921 17.867802
-38.025002 -112.5135 18.084499
-38.294998 -112.27966 18.162001
-38.155891 -112.38733 18.150444
-38.609203 -112.03201 18.132299
-38.402504 -112.1937 18.1308
-39.081001 -111.751 18.080999
-38.868252 -111.82687 18.144749
-38.707333 -111.95367 18.162666
-39.118248 -111.74387 18.156626
-40.061001 -111.013 18.147751
-39.853168 -111.10956 18.117889
-40.125 -110.992 18.1115
-41.005001 -110.287 18.0835
-40.847645 -110.30535 18.102215
-40.723999 -110.481 18.088501
-41.607498 -109.795 18.084499
-41.686165 -109.645 18.113001
-38.022831 -112.51067 18.365999
-38.292 -112.2735 18.394251
-38.152832 -112.38074 18.396833
-38.580002 -112.04276 18.354
-38.4198 -112.16866 18.376801
-38.844002 -111.837 18.360857
-38.679333 -111.962 18.414
-39.1222 -111.7344 18.3536
-39.855408 -111.09355 18.35309
-40.084602 -110.9883 18.3729
-40.828224 -110.28928 18.364723
-41.602169 -109.7835 18.361334
-41.908199 -109.551 18.385199
-41.699245 -109.62375 18.346083
-38.021332 -112.509 18.634666
-38.288498 -112.2655 18.627499
-38.139874 -112.37888 18.644625
-38.559334 -112.052 18.631001
-38.416496 -112.16219 18.6299
-39.25 -111.755 18.694
-38.850353 -111.82146 18.629429
-38.665253 -111.96525 18.62425
-39.109623 -111.72388 18.609125
-39.824375 -111.10732 18.633064
-40.059601 -110.9751 18.632399
-39.936249 -110.983 18.612499
-40.840832 -110.28533 18.586668
-40.717335 -110.467 18.634001
-41.599003 -109.77767 18.626999
-41.874737 -109.53996 18.614882
-41.675377 -109.6195 18.605375
-38.02 -112.5065 18.911251
-38.284332 -112.25567 18.837334
-38.156071 -112.35764 18.869001
-38.555 -112.0415 18.9105
-38.419746 -112.14863 18.871813
-39.249001 -111.754 18.862
-38.7967 -111.85429 18.8619
-38.662834 -111.96033 18.835165
-39.264999 -111.548 18.917
-39.117264 -111.68808 18.863371
-38.938999 -111.74517 18.835833
-39.543999 -111.346 18.896
-39.4105 -111.403 18.933001
-39.241001 -111.479 18.990999
-39.807926 -111.11164 18.875929
-39.645626 -111.1935 18.944626
-40.098877 -110.87987 18.89625
-39.939999 -110.95533 18.850666
-40.566002 -110.521 18.98
-40.401199 -110.6024 18.9415
-40.2495 -110.73351 18.892
-40.843498 -110.27512 18.789375
-40.671001 -110.39938 18.901625
-41.083374 -110.08512 18.903376
-40.923664 -110.19733 18.921667
-41.558002 -109.7815 18.8575
-41.359249 -109.84683 18.893999
-41.20433 -109.96233 18.893999
-41.807201 -109.52439 18.8452
-41.651787 -109.61164 18.852144
-41.486 -109.701 18.879999
-42.140667 -109.34499 18.866167
-41.903431 -109.41714 18.896143
-38.283001 -112.25349 19.048
-38.136997 -112.36214 19.125286
-38.55167 -112.034 19.136168
-38.425438 -112.13481 19.131811
-38.821915 -111.82301 19.135
-38.658127 -111.94875 19.108749
-39.251999 -111.511 19.079
-39.096355 -111.62086 19.153574
-38.94175 -111.73341 19.103584
-39.546249 -111.28925 19.145748
-39.39164 -111.38072 19.127789
-39.244499 -111.4925 19.203999
-39.809998 -111.0445 19.13975
-39.661068 -111.16075 19.144625
-40.119301 -110.8042 19.137701
-39.930428 -110.94529 19.138998
-40.36573 -110.61167 19.143726
-40.201 -110.74 19.23
-40.642498 -110.38238 19.137543
-41.082275 -110.04317 19.078667
-40.877499 -110.19416 19.089083
-41.320499 -109.84484 19.153833
-41.184875 -109.95425 19.118126
-41.621754 -109.60317 19.096834
-41.456001 -109.74025 19.1045
-42.048 -109.26756 19.143833
-41.859245 -109.41654 19.130102
-42.182335 -109.16257 19.122835
-38.156754 -112.33851 19.351063
-38.5485 -112.0275 19.418499
-38.387001 -112.15331 19.367313
-38.830376 -111.80999 19.352749
-38.655502 -111.94418 19.341
-39.105797 -111.5956 19.359198
-38.966335 -111.69967 19.342333
-39.367561 -111.38443 19.363375
-39.239998 -111.482 19.393501
-39.754375 -111.07663 19.38525
-39.601044 -111.19513 19.391291
-40.08342 -110.814 19.376333
-39.922417 -110.94141 19.394001
-40.367001 -110.58581 19.400375
-40.171001 -110.74233 19.341335
-40.63475 -110.37826 19.409874
-41.050999 -110.04645 19.346277
-40.877666 -110.18746 19.375793
-41.336498 -109.8198 19.3971
-41.181164 -109.94684 19.336836
-41.619114 -109.59811 19.348444
-41.465893 -109.71738 19.358446
-41.85545 -109.40649 19.372448
-42.297333 -109.061 19.379333
-42.146214 -109.17743 19.367357
-38.543999 -112.017 19.587
-38.418064 -112.11875 19.6385
-38.819649 -111.8075 19.612249
-38.651627 -111.93575 19.615501
-39.100414 -111.58567 19.613916
-38.962502 -111.69099 19.616001
-39.509499 -111.256 19.6845
-39.368374 -111.37157 19.621876
-39.237 -111.476 19.584
-39.76825 -111.058 19.612751
-39.639626 -111.15281 19.657562
-40.058998 -110.82525 19.581001
-39.929211 -110.9295 19.623642
-40.329109 -110.60389 19.653887
-40.154331 -110.74366 19.651001
-40.757668 -110.26833 19.737
-40.625366 -110.37342 19.630545
-40.464664 -110.49767 19.648001
-41.037834 -110.04833 19.598999
-40.871582 -110.18325 19.592499
-41.311169 -109.82484 19.655333
-41.176502 -109.93613 19.609001
-41.597168 -109.60242 19.591833
-41.445835 -109.72033 19.647001
-41.894718 -109.36715 19.604214
-41.7495 -109.478 19.6245
-42.292999 -109.05251 19.587
-42.138645 -109.16956 19.641211
-38.541 -112.01151 19.868002
-38.395428 -112.1255 19.878071
-38.806084 -111.80725 19.849417
-38.647751 -111.9265 19.868999
-39.097446 -111.579 19.839001
-38.959 -111.68333 19.849333
-39.347939 -111.376 19.855001
-39.757668 -111.05167 19.937668
-39.60014 -111.17307 19.888071
-40.054668 -110.81433 19.853334
-39.907253 -110.93431 19.863688
-40.318302 -110.6061 19.884768
-40.150833 -110.73584 19.903
-40.595917 -110.38326 19.90325
-40.460251 -110.4895 19.92
-41.043888 -110.03316 19.849112
-40.869045 -110.17339 19.875584
-41.310669 -109.81689 19.903557
-41.173199 -109.9317 19.820599
-41.59383 -109.59625 19.8535
-41.442127 -109.71212 19.898001
-42.014 -109.254 19.952
-41.874245 -109.37412 19.868124
-41.744999 -109.471 19.833334
-42.28833 -109.04367 19.865667
-42.144001 -109.15949 19.866285
-38.538002 -112.00549 20.094
-38.394779 -112.11555 20.136776
-38.234501 -112.245 20.019001
-38.819221 -111.78577 20.072668
-38.643665 -111.91858 20.114916
-39.093666 -111.57184 20.113501
-38.955002 -111.675 20.080002
-39.5135 -111.2725 20.195499
-39.344143 -111.36871 20.107264
-39.63031 -111.1425 20.109547
-40.253998 -110.76 20.248501
-40.048336 -110.79966 20.104
-39.910583 -110.91726 20.094831
-40.560001 -110.517 20.245001
-40.306961 -110.59296 20.104252
-40.145664 -110.72416 20.126833
-40.764999 -110.2525 20.046501
-40.619061 -110.37444 20.131187
-40.453999 -110.475 20.108
-41.058746 -110.06538 20.146999
-40.859715 -110.17314 20.122286
-41.356499 -109.83675 20.147499
-41.167751 -109.95204 20.095291
-41.596214 -109.60683 20.131214
-41.450333 -109.69733 20.087999
-42.073334 -109.29684 20.18
-41.884808 -109.38221 20.117905
-41.742001 -109.46425 20.10675
-42.149899 -109.15569 20.0776
-38.354954 -112.13591 20.376772
-38.85025 -111.7535 20.307251
-38.650093 -111.90446 20.367046
-39.29575 -111.53525 20.32675
-39.100071 -111.626 20.342787
-38.925251 -111.68638 20.373875
-39.592499 -111.30725 20.345501
-39.432667 -111.41416 20.300001
-39.810665 -111.12366 20.343332
-39.708668 -111.20034 20.297501
-40.128506 -110.87267 20.347498
-39.898666 -110.94233 20.35775
-40.563999 -110.53 20.333
-40.404572 -110.64857 20.308573
-40.751499 -110.333 20.347
-40.702335 -110.39011 20.433777
-41.071999 -110.13132 20.370165
-40.88356 -110.19349 20.381313
-41.373001 -109.88 20.261667
-41.242001 -109.992 20.281
-41.645832 -109.599 20.356668
-42.125 -109.305 20.280001
-41.874249 -109.4615 20.413
-41.737667 -109.45634 20.336
-42.213501 -109.2215 20.2675
-38.37455 -112.10935 20.632549
-38.835335 -111.754 20.545002
-38.649059 -111.89628 20.605167
-39.084335 -111.62096 20.604626
-38.917725 -111.68577 20.611891
-39.810249 -111.1245 20.618999
-40.119377 -110.89338 20.586876
-39.895397 -110.93983 20.625034
-40.751999 -110.339 20.685001
-40.705498 -110.39425 20.627251
-41.036999 -110.156 20.585499
-40.867443 -110.18239 20.637835
-41.655376 -109.58713 20.597626
-41.863197 -109.45589 20.612499
-41.733749 -109.44775 20.60825
-38.3433 -112.12321 20.873051
-38.644104 -111.88644 20.874126
-39.08514 -111.60722 20.856277
-38.892998 -111.69384 20.859167
-39.806332 -111.11667 20.850668
-39.918873 -110.92026 20.867935
-40.729168 -110.36001 20.884001
-41.034 -110.15 20.867334
-40.8615 -110.16984 20.91275
-41.653584 -109.58459 20.853498
-41.874401 -109.4449 20.883099
-41.73 -109.44 20.838335
-38.350273 -112.10786 21.138683
-38.643478 -111.8764 21.123104
-38.88686 -111.68594 21.131334
-39.91069 -110.92719 21.115623
-40.746002 -110.328 21.149332
-41.028999 -110.14033 21.134001
-40.860123 -110.16901 21.12825
-41.651253 -109.582 21.102875
-41.883587 -109.42739 21.135139
-41.72575 -109.432 21.11125
-38.384285 -112.07157 21.374002
-38.247501 -112.17551 21.4195
-38.765499 -111.769 21.453999
-38.647305 -111.86462 21.376139
-38.879665 -111.68516 21.382668
-39.911247 -110.90456 21.363626
-40.742996 -110.32175 21.3815
-41.025253 -110.13275 21.407249
-40.850498 -110.14622 21.392786
-41.650166 -109.58208 21.359251
-41.915375 -109.40684 21.392918
-41.723 -109.428 21.341665
-38.092003 -112.30412 21.58675
-38.380337 -112.06333 21.605499
-38.243668 -112.16933 21.631666
-38.768665 -111.75842 21.593582
-38.586918 -111.90267 21.622999
-39.122765 -111.57983 21.617868
-38.89875 -111.6605 21.582001
-39.793499 -111.08975 21.589748
-40.095917 -110.84075 21.634666
-39.891998 -110.91145 21.62956
-40.740002 -110.31667 21.656668
-41.021 -110.12466 21.639
-40.848 -110.1415 21.630751
-41.642002 -109.58671 21.612598
-41.898285 -109.39765 21.656431
-41.718498 -109.41875 21.615499
-38.066998 -112.3286 21.891199
-38.368126 -112.06355 21.8465
-38.192749 -112.19785 21.883648
-38.762501 -111.76151 21.75
-38.609165 -111.87357 21.870964
-38.444 -111.999 21.929001
-39.097969 -111.57168 21.883465
-38.875214 -111.66685 21.878788
-39.787334 -111.07566 21.863333
-40.090122 -110.82838 21.9125
-39.904213 -110.88621 21.881571
-40.711002 -110.32351 21.923334
-41.262001 -110.063 21.987
-41.01825 -110.12025 21.9135
-40.842644 -110.12971 21.886
-41.624397 -109.5671 21.879
-41.458 -109.661 21.99
-41.916531 -109.36076 21.903233
-41.715332 -109.41333 21.846666
-42.149662 -109.17901 21.944666
-42.287498 -108.9655 21.970001
-38.329376 -112.08225 22.138374
-38.202999 -112.17999 22.139999
-38.44175 -111.995 22.119999
-39.292999 -111.664 22.086
-39.7925 -111.09399 22.122
-39.620598 -111.1462 22.137001
-40.093502 -110.77425 22.039749
-39.87714 -110.87901 22.115499
-39.707001 -110.975 22.103001
-40.289703 -110.5887 22.101099
-40.111874 -110.68137 22.131498
-40.592251 -110.35758 22.122751
-40.429123 -110.43075 22.102501
-40.8563 -110.10905 22.143101
-41.135376 -109.89406 22.103188
-40.971001 -109.996 22.2495
-41.612747 -109.55175 22.122
-41.404812 -109.65513 22.109749
-41.838081 -109.31326 22.11425
-41.657001 -109.44661 22.093498
-42.271 -109.02 22.065001
-42.124001 -109.11391 22.094332
-41.945 -109.21799 22.112499
-38.580502 -111.879 22.347168
-38.438663 -111.98867 22.353668
-38.925167 -111.6145 22.357
-39.165253 -111.428 22.334
-39.597794 -111.08746 22.315708
-39.438999 -111.20876 22.307251
-39.891399 -110.8441 22.316599
-39.746498 -110.9665 22.310001
-40.25975 -110.5545 22.30475
-40.098499 -110.6877 22.298101
-40.557999 -110.3095 22.300499
-40.422832 -110.41717 22.302332
-40.830997 -110.104 22.311666
-40.664501 -110.242 22.315498
-41.139999 -109.86033 22.268667
-41.540501 -109.54076 22.250248
-41.811501 -109.3185 22.2845
-41.679001 -109.43649 22.2705
-41.928749 -109.1775 22.274
