# .PCD v0.7 - Point Cloud Data file format
VERSION 0.7
FIELDS x y z
SIZE 4 4 4
TYPE F F F
COUNT 1 1 1
WIDTH 169
HEIGHT 1
VIEWPOINT -18.2321 96.2205 -1.35163 -0.354149 -0.00701479 0.0211809 0.934923
POINTS 169
DATA ascii
-0.80660206 -40.627384 7.8375039
-0.61147624 -40.361328 7.8465791
-0.45015001 -40.302902 7.960875
-0.51983333 -40.195 7.7983332
-0.37558979 -40.097599 7.8912129
-0.32586437 -39.910637 7.8137498
-0.18940094 -39.855358 7.9162359
-0.098093651 -39.67268 7.8664622
0.05880953 -39.567249 7.9480476
-0.019000001 -39.46946 7.7885418
0.11513006 -39.369186 7.8504043
0.20779167 -39.139584 7.7981668
0.39871213 -38.863735 7.7942238
-0.44191068 -40.294518 8.1279202
-0.32727224 -40.126072 8.1288071
-0.15973392 -39.875027 8.1397114
-0.032951511 -39.692581 8.1163492
-0.4605729 -40.311825 8.3730726
-0.33724833 -40.132999 8.4089136
-0.15405235 -39.870014 8.4140902
-0.032333333 -39.692268 8.3774061
-0.3436625 -40.314163 8.6231642
-0.31171668 -40.174404 8.5364666
-0.16744442 -40.078053 8.6210003
-0.075942859 -39.896324 8.5730963
0.052200001 -39.801132 8.6482334
-0.30089143 -40.327843 8.8723965
-0.2373125 -40.25444 8.848938
-0.14848317 -40.111488 8.8469257
-0.027696431 -39.91983 8.8599682
0.056941666 -39.814976 8.8318367
-0.29479286 -40.306904 9.0959654
-0.1811956 -40.117367 9.1225042
-0.042070437 -39.912182 9.1483927
-0.30499664 -40.297977 9.3667002
-0.18926732 -40.115841 9.3624516
-0.046870537 -39.904388 9.4004517
-0.31348699 -40.293312 9.620409
-0.26914287 -40.226143 9.7361431
-0.17602187 -40.103729 9.6335011
-0.059990332 -39.921467 9.6307716
0.048462123 -39.790253 9.6239653
-0.5291667 -40.317123 9.9665413
-0.4016 -40.315517 9.8517504
-0.35517588 -40.158337 9.9125481
-0.22173335 -40.0872 9.8179331
-0.28392857 -39.966145 9.9551792
-0.13308965 -39.867466 9.8777933
-0.051852383 -39.656525 9.9323578
-0.52916664 -40.326336 10.069167
-0.40966463 -40.313175 10.162917
-0.33774894 -40.145515 10.07337
-0.19673015 -40.054245 10.183453
-0.31 -39.966 10.002
-0.10151666 -39.87566 10.133924
-0.33845368 -40.279285 10.39075
-0.26737037 -40.174351 10.333758
-0.17741553 -40.129612 10.430702
-0.084048294 -39.931736 10.367538
0.034305554 -39.828209 10.426792
-0.28850001 -40.306583 10.534416
-0.26114288 -40.239574 10.545143
-0.15277202 -40.12553 10.609804
-0.057520833 -39.94125 10.562875
0.035511114 -39.863201 10.625989
-0.12838988 -40.130737 10.871951
-0.025638891 -39.982445 10.847667
0.05867302 -39.858738 10.883919
-0.13838626 -40.129147 11.137699
-0.029650003 -39.973 11.099649
0.04464896 -39.862495 11.162359
-0.13564198 -40.109348 11.385546
-0.036194447 -39.966988 11.351472
0.045977782 -39.846661 11.39462
-0.13857011 -40.105339 11.614079
-0.034812503 -39.953125 11.601624
0.058085453 -39.815769 11.627103
-0.22133334 -40.902832 11.937667
-0.15454762 -40.117199 11.862851
-0.04251371 -39.948452 11.850871
0.059616666 -39.800575 11.872126
-0.249 -40.793999 12.099
-0.17752361 -40.132664 12.139441
-0.033939585 -39.918232 12.148307
0.052447919 -39.796345 12.098896
-0.28018335 -40.62085 12.470035
-0.16706292 -40.094845 12.380913
-0.046027776 -39.921707 12.368938
0.030337499 -39.813759 12.351089
-1.2739999 -41.738998 12.7155
-1.0518 -41.423103 12.701851
-0.83324945 -41.149456 12.665501
-0.54731113 -40.679379 12.687279
-0.3237153 -40.396183 12.653781
-0.243 -40.368 12.588
-0.18073556 -40.097969 12.635672
-0.05228373 -39.911686 12.647302
0.025657739 -39.799679 12.649799
0.14540476 -39.629704 12.637869
0.36192548 -39.410404 12.619338
-1.0690933 -41.831276 12.924494
-0.89748573 -41.615742 12.929338
-0.77762502 -41.451752 12.9285
-0.69630831 -41.340351 12.937025
-0.5621556 -41.139572 12.923327
-0.46200001 -41.021667 12.963
-0.52999997 -40.987999 12.847
-0.37305 -40.885883 12.930789
-0.28399998 -40.746498 12.8855
-0.24283335 -40.694168 12.909333
-0.18246667 -40.084415 12.896887
-0.067375004 -39.916328 12.90975
0.029850002 -39.781448 12.82755
0.15623069 -39.598335 12.873879
0.40757826 -39.568752 12.881111
0.54091668 -39.578983 12.928612
0.26589999 -39.48175 12.89715
-1.093787 -41.913254 13.13747
-0.9655 -41.815002 13.092
-1.0238889 -41.720333 13.218556
-0.87554425 -41.616615 13.149969
-0.75659996 -41.438202 13.1644
-0.69221467 -41.341583 13.098536
-0.56558609 -41.165638 13.104133
-0.4579629 -41.080223 13.16024
-0.36339286 -40.871395 13.126301
-0.29659444 -40.715469 13.158628
-0.24411111 -40.645889 13.164333
-0.18464285 -40.07534 13.095215
-0.07453078 -39.912407 13.138304
-1.0820278 -41.905773 13.412953
-0.96749997 -41.799667 13.4715
-1.006 -41.714001 13.3535
-0.88915277 -41.543835 13.362473
-0.79277503 -41.450085 13.370558
-0.68000001 -41.328457 13.35633
-0.57290131 -41.145241 13.380762
-0.41950002 -41.031921 13.468584
-0.37783247 -40.892979 13.380908
-0.29244047 -40.742455 13.301262
-0.2395 -40.691498 13.440834
-0.18471032 -40.058376 13.347152
-0.074300922 -39.896622 13.383925
0.033333331 -39.7505 13.253501
-1.0704132 -41.903709 13.629423
-0.95574999 -41.780777 13.584946
-0.89424068 -41.636543 13.630428
-0.81899995 -41.355747 13.611875
-0.69587964 -41.310287 13.529926
-0.77698612 -41.219528 13.611084
-0.60406041 -41.122684 13.616484
-0.48185834 -41.066132 13.626724
-0.35141683 -40.874775 13.618814
-0.28333336 -40.72567 13.723333
-0.237 -40.579891 13.582334
-0.23508334 -40.410667 13.669333
-0.20386906 -40.088345 13.652678
-0.061998025 -39.86478 13.614735
-1.0165 -41.679749 13.85725
-0.91425139 -41.595806 13.834208
-0.81585711 -41.413658 13.82191
-0.7256667 -41.293224 13.8005
-0.6207031 -41.139343 13.809145
-0.52316666 -40.977669 13.8235
-0.42059332 -40.837112 13.808685
-0.29955715 -40.655659 13.816144
-0.234 -40.313 13.755
-0.18840834 -40.034599 13.864751
-0.076643847 -39.871433 13.864716
