# .PCD v0.7 - Point Cloud Data file format
VERSION 0.7
FIELDS x y z
SIZE 4 4 4
TYPE F F F
COUNT 1 1 1
WIDTH 178
HEIGHT 1
VIEWPOINT -18.2321 96.2205 -1.35163 -0.354149 -0.00701479 0.0211809 0.934923
POINTS 178
DATA ascii
100.379 177.92999 24.49
100.38 178.21201 24.49
100.345 178.43401 24.492001
100.062 179.85001 24.441999
100.002 180.188 24.461
99.946999 180.375 24.445999
100.386 177.94299 24.632
100.381 178.216 24.631001
100.341 178.427 24.638
100.295 178.64349 24.5795
100.243 178.868 24.518999
100.328 179.01801 24.687
100.17 179.304 24.504
100.121 179.533 24.525999
100.12667 179.82567 24.675333
100.013 180.209 24.611
99.949997 180.382 24.6665
100.38 177.93451 24.850498
100.379 178.21301 24.851
100.3425 178.42999 24.855499
100.2915 178.63901 24.867001
99.957001 178.927 24.886999
100.142 178.974 24.992001
100.324 179.013 24.901501
100.025 179.93201 24.76
100.0105 180.20551 24.8265
99.949997 180.383 24.884001
99.821999 180.74899 24.759001
99.831001 180.76601 24.905001
100.382 177.9395 25.140999
100.386 178.22751 25.140499
100.346 178.438 25.147499
100.2935 178.64401 25.160999
100.339 179.03999 25.125999
99.996002 180.181 25.191999
99.953995 180.3925 25.105499
99.844498 180.6465 25.123001
99.828003 180.76199 25.198999
100.381 177.937 25.358
100.394 178.243 25.363001
100.345 178.438 25.361
100.297 178.651 25.377001
100.3945 179.1405 25.355
100.354 179.35501 25.407
100.302 179.54601 25.41
100.1158 179.86621 25.372
100.264 179.795 25.441
99.992996 180.177 25.333
100.006 180.198 25.485001
99.956497 180.39899 25.3995
99.872002 180.55249 25.416
99.829002 180.7655 25.418499
100.385 177.94699 25.5765
100.3885 178.23499 25.5755
100.33949 178.42899 25.5805
100.29649 178.65201 25.597
100.3505 179.06551 25.636
100.286 179.3765 25.650499
100.299 179.54201 25.558001
100.134 179.84251 25.6355
100.264 179.79601 25.73
99.996002 180.18201 25.631001
99.957001 180.39999 25.615999
99.876999 180.562 25.636
99.829002 180.767 25.639
100.3795 177.93851 25.866001
100.3735 178.209 25.862999
100.34351 178.438 25.872499
100.298 178.65649 25.886
100.332 179.03299 25.922501
100.2805 179.368 25.945
100.288 179.52299 25.844
100.06799 179.91699 25.865
100.255 179.78 25.875999
99.999001 180.19 25.921
100.001 180.192 25.775
99.958496 180.40451 25.838001
99.872498 180.556 25.857
99.828003 180.76649 25.857
100.38699 177.953 26.155499
100.3755 178.215 26.1555
100.34 178.4325 26.163
100.2905 178.64401 26.175499
100.254 178.89301 26.117001
100.206 179.095 26.17
100.264 179.198 26.042
100.165 179.306 26.101999
100.15649 179.6055 26.067501
100.07025 179.87299 26.121998
99.997002 180.18701 26.139999
99.953003 180.3965 26.126999
99.862999 180.541 26.1455
99.829498 180.77051 26.152
100.384 177.951 26.375
100.38 178.22301 26.375999
100.341 178.436 26.378
100.299 178.661 26.395
100.248 178.88499 26.264
100.25 178.88901 26.410999
100.2115 179.105 26.392
100.1675 179.3105 26.323
100.11066 179.61601 26.337667
100.062 179.86 26.4105
100.004 180.2 26.361
99.955505 180.4025 26.4235
99.876999 180.56799 26.372
99.830002 180.772 26.368999
100.387 177.95599 26.591
100.36501 178.19849 26.587
100.34 178.4355 26.598
100.2955 178.65601 26.612999
100.25349 178.8965 26.630501
100.209 179.103 26.608
100.165 179.3075 26.6115
100.1245 179.5495 26.643
100.05634 179.90001 26.593
99.995003 180.187 26.649
100.001 180.196 26.507999
99.949997 180.39301 26.638
99.876999 180.569 26.588501
99.831001 180.776 26.591999
100.361 178.194 26.876999
100.338 178.43451 26.886499
100.293 178.653 26.9035
100.243 178.88 26.9205
100.2095 179.105 26.828499
100.1585 179.29849 26.9035
100.121 179.54401 26.860001
100.05975 179.85873 26.848749
99.990997 180.181 26.871
99.944 180.38449 26.859501
99.849998 180.61867 26.904333
99.796501 180.868 26.897499
100.2775 178.328 27.162001
100.21 178.508 27.243
100.252 178.58099 27.108
100.172 178.89749 27.149
100.12667 179.14734 27.132002
100.067 179.45 27.139999
100.05233 179.60735 27.065001
99.967499 179.84201 27.152
99.93 180.07201 27.144001
99.859001 180.33565 27.167334
99.79966 180.62532 27.139666
99.731003 180.90401 27.127001
100.105 177.883 27.469999
100.1355 178.226 27.428501
100.265 178.026 27.358
100.167 178.431 27.379
99.962997 178.66701 27.413
100.1335 178.68649 27.327499
99.912003 178.862 27.492001
100.101 178.914 27.309999
99.877998 179.11099 27.377001
100.013 179.039 27.372
99.834 179.311 27.408001
100.029 179.383 27.275999
99.748001 179.74699 27.465
99.879662 179.58699 27.371332
99.695999 179.94099 27.448
99.810997 179.85899 27.334
99.657997 180.177 27.407501
99.787003 180.104 27.33
99.606003 180.37399 27.4105
99.580002 180.633 27.377001
99.576012 180.83801 27.346001
100.036 177.9015 27.674999
99.997002 178.132 27.621
99.953003 178.367 27.639999
100.002 178.45399 27.506001
99.928001 178.6075 27.625
99.875999 178.79601 27.629
99.827667 179.11501 27.574667
99.711998 179.68201 27.597
99.671997 179.89799 27.587999
99.629997 180.12801 27.621
99.582001 180.33099 27.625
99.526001 180.536 27.51
