# .PCD v0.7 - Point Cloud Data file format
VERSION 0.7
FIELDS x y z
SIZE 4 4 4
TYPE F F F
COUNT 1 1 1
WIDTH 85
HEIGHT 1
VIEWPOINT -18.2321 96.2205 -1.35163 -0.354149 -0.00701479 0.0211809 0.934923
POINTS 85
DATA ascii
-45.716 10.971 3.4860001
-45.888611 11.146408 3.3685555
-46.022999 11.316 3.471
-45.634808 11.658931 3.3971393
-46.147167 10.312 3.6486666
-45.915142 10.378 3.6239285
-46.288498 10.5955 3.6715
-46.115093 10.647036 3.6162858
-45.720001 10.955 3.7495
-45.870926 11.369149 3.6505001
-45.488873 11.472745 3.6518221
-45.617928 11.609858 3.603786
-45.653183 11.882833 3.6505277
-46.105331 9.8611536 3.8675098
-46.127438 10.102459 3.8541875
-45.975449 10.201639 3.8473611
-46.217834 10.339 3.8415
-45.907482 10.389377 3.8677018
-46.141876 10.617586 3.8287194
-45.87764 10.66857 3.852689
-45.586117 11.382318 3.8311336
-45.493084 11.483666 3.90025
-45.658611 11.872555 3.9171112
-46.188419 10.331666 4.0665832
-45.92382 10.405972 4.1209426
-46.125011 10.624129 4.1405835
-45.814667 11.271222 4.1275558
-45.603668 11.380668 4.0699997
-45.493668 11.489668 4.1013336
-45.636978 11.880309 4.1170669
-46.340557 10.128542 4.3773613
-46.153126 10.341749 4.3520002
-45.916527 10.404133 4.3578835
-46.166668 10.619452 4.3642149
-45.995998 10.628 4.2610002
-46.05117 10.844833 4.4005003
-45.974167 10.862083 4.347528
-46.032948 11.011945 4.3449998
-45.900921 11.164499 4.373167
-45.864479 11.398952 4.3606668
-45.817001 11.503 4.3924999
-46.184498 10.127666 4.6835003
-46.279335 10.285667 4.7476668
-46.212421 10.322334 4.6065836
-45.905827 10.409198 4.6350942
-46.100315 10.599501 4.6385927
-45.98 10.691 4.6919999
-46.065098 10.844187 4.621552
-45.964001 10.868999 4.6615
-46.014374 11.074249 4.6334167
-45.9543 11.15025 4.6345501
-45.856117 11.372429 4.6212144
-45.496002 11.489 4.5474997
-46.249664 10.177 4.8490005
-46.264 10.282333 4.8463335
-45.927818 10.41005 4.8495088
-46.127972 10.655712 4.8773708
-45.957832 10.993042 4.9067087
-46.009003 11.089167 4.8931665
-45.934681 11.110384 4.8372421
-45.814831 11.603 4.9050002
-45.624249 11.6245 4.8892498
-45.490791 11.536083 4.8886251
-46.134201 10.658112 5.1096482
-45.874763 10.62816 5.2057977
-46.053104 10.864084 5.1001835
-45.813309 10.846473 5.1754169
-45.734833 10.9485 5.1957083
-46.037334 11.045167 5.0935001
-45.903957 11.197428 5.1010237
-45.679188 11.11 5.1986876
-45.903625 11.377375 5.07125
-45.612343 11.381927 5.1768541
-45.799 11.5295 5.0815001
-45.593132 11.6124 5.1181335
-45.9095 10.9465 5.2779999
-46.011421 11.104584 5.4041662
-45.883144 11.155267 5.3209467
-45.898964 11.350183 5.3570666
-45.790668 11.538333 5.3623333
-45.557404 11.596733 5.3541336
-45.495354 11.574825 5.4151249
-45.708836 11.906548 5.3622384
-45.850502 11.5765 5.5345001
-45.783501 11.764 5.5304999
