# .PCD v0.7 - Point Cloud Data file format
VERSION 0.7
FIELDS x y z
SIZE 4 4 4
TYPE F F F
COUNT 1 1 1
WIDTH 85
HEIGHT 1
VIEWPOINT -18.2321 96.2205 -1.35163 -0.354149 -0.00701479 0.0211809 0.934923
POINTS 85
DATA ascii
-7.5928645 -48.365501 11.148
-7.604075 -48.363819 11.371175
-7.4073277 -48.201965 11.370622
-7.5948458 -48.327118 11.606504
-7.6252003 -48.337524 11.876938
-7.5440836 -48.242752 11.90375
-7.6529164 -48.363056 12.117141
-7.5566196 -48.237125 12.147392
-7.6691008 -48.374401 12.3722
-7.5379534 -48.205425 12.370714
-7.3551655 -48.121662 12.401645
-7.6566386 -48.329136 12.643612
-7.545701 -48.195068 12.630926
-7.3585854 -48.107357 12.649285
-7.1892223 -48.097778 12.598445
-7.6507502 -48.303001 12.901167
-7.5611334 -48.194202 12.871634
-7.3566318 -48.096134 12.892776
-7.1838336 -48.070507 12.844501
-7.6702228 -48.317059 13.137444
-7.5757279 -48.194824 13.118717
-7.3893323 -48.087807 13.14217
-7.222959 -48.049496 13.101944
-7.6741252 -48.316292 13.346375
-7.5821228 -48.184875 13.42039
-7.4334512 -48.090054 13.380206
-7.2461109 -48.054443 13.404556
-7.6865668 -48.318268 13.664267
-7.5942802 -48.185768 13.598753
-7.4210634 -48.073231 13.631793
-7.2426133 -48.043507 13.649333
-7.7008333 -48.336502 13.893167
-7.5961795 -48.174316 13.863371
-7.3972111 -48.052059 13.90342
-7.6946664 -48.311279 14.144668
-7.5940709 -48.161304 14.120121
-7.3944969 -48.043312 14.096094
-7.2393889 -48.024723 14.09441
-7.6860003 -48.267334 14.446334
-7.5914736 -48.14999 14.356753
-7.3729682 -48.027447 14.363912
-7.2297502 -48.010334 14.293334
-7.1948333 -47.970169 14.401167
-7.6833334 -48.257336 14.554335
-7.6104822 -48.156094 14.635685
-7.340168 -48.013023 14.63629
-7.3144999 -47.9995 14.691
-7.1864448 -47.928448 14.652667
-7.6042533 -48.142223 14.87034
-7.408011 -48.01638 14.864151
-7.24475 -48.002251 14.832
-7.2914782 -47.998386 14.872656
-7.0458894 -47.290314 14.90371
-7.6073141 -48.136887 15.129831
-7.431633 -48.012619 15.14142
-7.3065581 -47.991695 15.151166
-7.0714836 -47.36095 15.1553
-7.6170359 -48.138958 15.377631
-7.4550829 -48.012253 15.399
-7.3324447 -47.988792 15.415121
-7.1056666 -47.428665 15.411667
-7.7132502 -48.2775 15.691084
-7.5929585 -48.106018 15.646665
-7.462111 -48.009445 15.639557
-7.3584681 -47.987888 15.621412
-7.7130003 -48.2845 15.8815
-7.5906353 -48.096886 15.897294
-7.4631662 -48.002251 15.906751
-7.3463988 -47.980572 15.864009
-7.2472491 -47.975002 15.844499
-7.7069449 -48.256275 16.146168
-7.5957112 -48.094128 16.148073
-7.495584 -48.013168 16.142111
-7.3879228 -47.979496 16.132132
-7.2492781 -47.973389 16.092306
-7.5929832 -48.089157 16.398201
-7.4965 -48.01075 16.398834
-7.378521 -47.979031 16.368601
-7.2449031 -47.971806 16.348083
-7.5994735 -48.095367 16.611147
-7.4944444 -48.008114 16.647112
-7.3921866 -47.975906 16.64959
-7.2449074 -47.97081 16.64739
-7.6273608 -48.104336 16.876234
-7.4920001 -48.003502 16.822498
