# .PCD v0.7 - Point Cloud Data file format
VERSION 0.7
FIELDS x y z
SIZE 4 4 4
TYPE F F F
COUNT 1 1 1
WIDTH 109
HEIGHT 1
VIEWPOINT -18.2321 96.2205 -1.35163 -0.354149 -0.00701479 0.0211809 0.934923
POINTS 109
DATA ascii
-81.842499 -82.551498 19.459499
-82.261497 -82.276001 19.445499
-82.128128 -82.360252 19.411125
-82.62999 -82.070747 19.415375
-81.549995 -82.773994 19.634001
-81.365433 -82.885376 19.634701
-82.001999 -82.542 19.610001
-81.84993 -82.592857 19.666714
-81.67157 -82.697998 19.631285
-82.334999 -82.296997 19.618
-82.137619 -82.391068 19.578686
-81.941002 -82.480003 19.514999
-82.762497 -82.029495 19.5965
-82.611839 -82.105438 19.603777
-82.423897 -82.219398 19.600201
-82.826996 -81.988503 19.5965
-82.739334 -81.93734 19.733665
-84.014 -81.531998 19.657
-83.898834 -81.600838 19.711332
-83.1175 -81.685501 19.745499
-84.079666 -81.375671 19.688334
-83.660004 -81.429001 19.601
-84.78125 -81.050499 19.66
-84.662506 -81.112 19.654499
-84.388168 -81.105331 19.669167
-84.144005 -81.153336 19.624834
-83.984001 -81.165001 19.607
-81.152779 -83.076385 19.857056
-81.58567 -82.828835 19.883833
-81.356667 -82.927246 19.910751
-82.322998 -82.571503 19.98
-82.184998 -82.669502 19.979
-81.867332 -82.616669 19.830332
-81.712997 -82.706001 19.812
-82.634003 -82.357002 19.990999
-82.323448 -82.290276 19.7925
-82.1558 -82.414803 19.825399
-83.061996 -82.098495 19.890999
-82.846626 -82.090881 19.95075
-82.598083 -82.137497 19.844416
-82.457504 -82.181 19.821499
-83.366501 -81.877998 19.932499
-83.081001 -81.888 19.974001
-82.698997 -81.968002 19.790001
-84.045746 -81.53775 19.7915
-83.954002 -81.596001 19.834999
-83.394997 -81.738998 19.854
-83.176003 -81.639 19.802999
-84.120003 -81.416252 19.82025
-84.641998 -81.123001 19.777
-84.368004 -81.086662 19.790335
-84.202499 -81.210495 19.806
-82.078499 -82.792999 20.0175
-81.912003 -82.910004 20.029333
-82.586746 -82.461243 20.021749
-83.098495 -82.074005 20.011501
-82.808746 -82.108749 20.077499
-82.641495 -82.201996 20.052
-84.399002 -81.117996 20.24
-84.236 -81.072998 20.209
-83.035004 -81.952003 20.483999
-84.231003 -81.528999 20.466
-84.777 -81.019997 20.288
-84.584999 -81.03167 20.35
-84.476997 -81.084999 20.268999
-84.612999 -80.981995 20.307999
-82.834503 -82.28125 20.6695
-83.308998 -82.004997 20.621
-82.893837 -82.088837 20.624332
-83.8405 -81.779495 20.717499
-83.265999 -81.962997 20.694
-83.084595 -81.95961 20.6754
-84.132149 -81.573051 20.612452
-83.90638 -81.714249 20.627625
-84.292007 -81.410629 20.599874
-84.958496 -81.030502 20.534
-84.318336 -81.194 20.712332
-84.240501 -81.197998 20.6075
-84.699997 -80.946999 20.521999
-82.910004 -82.296997 20.875999
-83.440002 -82.008003 20.790001
-82.917664 -82.134666 20.815332
-83.369499 -81.938995 20.8985
-83.129875 -81.938995 20.868376
-84.084999 -81.555496 20.939499
-83.917999 -81.682495 20.9655
-84.334801 -81.398598 20.889999
-84.193001 -81.495003 20.962999
-84.547501 -81.096252 20.90625
-84.430626 -81.165253 20.841249
-82.831169 -82.299995 21.146667
-82.658997 -82.4505 21.182999
-83.057396 -82.150803 21.112202
-82.704002 -82.214996 21.247
-83.765999 -81.766998 21.014999
-83.464996 -81.929001 21.052
-83.214996 -81.915001 21.02
-84.251999 -81.553001 21.149
-84.2005 -81.559494 21.1805
-83.932999 -81.7015 21.098499
-84.381737 -81.409531 21.139202
-83.026001 -82.301003 21.382
-82.863747 -82.372253 21.412249
-82.695496 -82.487999 21.3615
-83.131195 -82.129402 21.351801
-83.504997 -81.855003 21.309999
-83.452003 -81.917999 21.302
-84.015999 -81.665001 21.284
-83.921997 -81.691002 21.264
