# .PCD v0.7 - Point Cloud Data file format
VERSION 0.7
FIELDS x y z
SIZE 4 4 4
TYPE F F F
COUNT 1 1 1
WIDTH 95
HEIGHT 1
VIEWPOINT -18.2321 96.2205 -1.35163 -0.354149 -0.00701479 0.0211809 0.934923
POINTS 95
DATA ascii
4.60675 19.3965 -1.2505
4.8072863 19.693001 -1.2547144
4.9078031 19.839676 -1.285046
5.0975199 20.121544 -1.2915893
5.2108335 20.292667 -1.2834167
5.2873659 20.40461 -1.2874137
5.4128065 20.590162 -1.2970207
5.5755153 20.831223 -1.3038094
5.7122254 21.035957 -1.2919583
5.8022003 21.169601 -1.3080168
5.9344926 21.366961 -1.3169148
6.0178995 21.491402 -1.3015001
6.1270671 21.651123 -1.3213319
6.2305536 21.811174 -1.3016906
6.2919717 21.932693 -1.3398334
3.9921668 18.502666 -1.113
4.0917497 18.641405 -1.1478759
4.2114353 18.818775 -1.1383386
4.2979145 18.946308 -1.1421434
4.4263544 19.136309 -1.1302288
4.5784898 19.358736 -1.148596
4.7066312 19.549437 -1.1502019
4.7968698 19.68404 -1.138687
4.9305243 19.881332 -1.1235045
5.1406665 19.961334 -1.0063334
5.1130538 20.153099 -1.1344615
5.4683752 20.191999 -1.0057499
5.2375994 20.341232 -1.1066333
5.3279681 20.423418 -1.1128339
5.5805554 20.348669 -1.0086666
5.4336596 20.625957 -1.1323818
5.7165003 20.550499 -1.015
5.789917 20.657249 -1.0115833
5.588284 20.857664 -1.1302997
5.9141498 20.844074 -1.0169752
5.7128778 21.04723 -1.1159798
5.805481 21.184473 -1.1449596
6.0857148 21.111284 -1.0306906
5.9213915 21.355324 -1.1339762
6.2003613 21.2735 -1.0345833
6.2906332 21.400757 -1.029711
6.1052604 21.628857 -1.1321898
6.4394875 21.626106 -1.0342751
6.2265387 21.8125 -1.119077
4.2960043 18.454914 -0.85642087
3.9867501 18.504501 -0.97549999
4.084116 18.602905 -0.9664197
4.395843 18.634407 -0.87170994
4.1972642 18.802189 -0.98102862
4.3031116 18.924944 -0.97227782
4.5672421 18.863354 -0.85268033
4.4233575 19.139606 -0.98871434
4.6991167 19.053717 -0.84048063
4.7958722 19.195292 -0.87869692
4.6094999 19.363033 -0.98743331
4.9172006 19.392103 -0.87711334
4.7145 19.533749 -0.99575001
4.9120002 19.6616 -0.99180001
5.0842185 19.623276 -0.88059026
5.2057424 19.8022 -0.88007629
5.304935 19.949139 -0.8499223
5.4331536 20.137543 -0.86219043
5.5765934 20.349192 -0.87812543
5.699079 20.529926 -0.89191788
5.8007812 20.681131 -0.87384015
5.9160905 20.851265 -0.88538259
6.0035477 20.984646 -0.80097628
6.0997 21.12624 -0.83276188
4.179193 18.316828 -0.62052888
4.2872744 18.455023 -0.62973052
4.4162283 18.645386 -0.6274792
4.5666604 18.869326 -0.59036881
4.7002897 19.066303 -0.60694176
4.7834959 19.189157 -0.61534822
4.9039083 19.367012 -0.61739141
4.9927502 19.501417 -0.57499999
5.0808434 19.626968 -0.65948761
5.2295508 19.84235 -0.74939996
5.3115559 19.972889 -0.56133336
5.4277 20.140579 -0.64445353
5.5840468 20.371105 -0.6582092
5.7023849 20.546618 -0.65422457
5.7864661 20.672518 -0.63156033
5.9126005 20.859411 -0.64401215
6.0073333 20.997002 -0.68300003
4.2714372 18.442249 -0.46918756
4.4085746 18.641994 -0.47204199
4.5651002 18.873497 -0.47242916
4.7043333 19.07939 -0.47644448
4.7880001 19.2015 -0.4815
4.8860836 19.348291 -0.48395833
4.9954996 19.509499 -0.48699999
5.0727777 19.623446 -0.49133334
5.1917505 19.799751 -0.49633333
5.309 19.976 -0.498
