# .PCD v0.7 - Point Cloud Data file format
VERSION 0.7
FIELDS x y z
SIZE 4 4 4
TYPE F F F
COUNT 1 1 1
WIDTH 249
HEIGHT 1
VIEWPOINT -18.2321 96.2205 -1.35163 -0.354149 -0.00701479 0.0211809 0.934923
POINTS 249
DATA ascii
57.418751 105.72075 0.1495
57.659164 105.68066 0.14716667
57.864002 105.59629 0.099285714
57.089996 105.92042 0.15033333
57.309502 105.7895 0.11437501
57.569 105.78268 0.15499999
56.744999 106.207 0.085000001
56.881145 106.06586 0.13349999
56.165375 106.466 0.13087499
56.341888 106.35128 0.14738888
56.563404 106.2936 0.10266668
56.060333 106.52799 0.15799999
57.931 105.3945 0.41799998
57.411999 105.72266 0.37283334
57.619598 105.6792 0.40230003
57.797077 105.58533 0.36733332
57.093208 105.92658 0.391875
57.285378 105.81281 0.39218748
57.553001 105.753 0.322
56.710102 106.2137 0.3434
56.85714 106.08315 0.38614282
56.187622 106.46031 0.38475001
56.380249 106.33637 0.417
56.56517 106.29884 0.35274997
56.06575 106.53775 0.38950002
57.9165 105.42649 0.63866669
57.619301 105.6614 0.66909999
57.803997 105.56331 0.61519992
57.097088 105.93408 0.65399998
57.351379 105.79123 0.63560414
57.534 105.8035 0.65549999
56.696999 106.207 0.5345
56.846634 106.1041 0.65127277
56.209503 106.45734 0.63050002
56.357086 106.36642 0.62991667
56.57254 106.29822 0.59837496
56.097801 106.5272 0.67579997
57.9174 105.4397 0.88409996
57.664661 105.66183 0.88741666
57.799 105.58762 0.91662502
57.109272 105.93368 0.86133337
57.330582 105.85943 0.90249997
57.592499 105.86813 0.92125005
56.665997 106.1935 0.84450001
56.836632 106.0851 0.89756668
57.048752 106.05825 0.94375002
56.241913 106.44834 0.88449997
56.395599 106.34871 0.87109995
56.542004 106.26984 0.85566664
55.883083 106.64045 0.86081815
56.108376 106.52888 0.88912499
57.690796 105.6871 1.1518999
57.825497 105.59399 1.11675
57.167252 105.97625 1.10875
57.351799 105.8406 1.1454
57.602505 105.87017 1.1485
56.697899 106.1909 1.1175001
56.833496 106.10099 1.1428334
57.088497 106.09 1.146625
57.400002 106.0085 1.096
56.348667 106.38686 1.1224524
56.546162 106.27783 1.1083333
56.086285 106.554 1.1307143
57.726002 105.717 1.4
57.794003 105.62778 1.3715554
57.319504 105.88125 1.3623333
57.635998 105.845 1.3606668
56.687401 106.2065 1.3810999
56.868202 106.1136 1.3663
57.152 106.04539 1.3271999
56.347626 106.39793 1.3595002
56.550495 106.28584 1.3598334
57.069 106.278 1.337
56.069126 106.57051 1.353875
57.790333 105.65933 1.6413332
57.186996 105.9735 1.5864999
57.3745 105.8345 1.6801667
57.506001 105.835 1.663
56.698254 106.20834 1.6344166
56.836166 106.10683 1.6471666
57.106003 106.0385 1.6799999
56.223 106.493 1.668
56.368687 106.39178 1.6369063
56.5466 106.2972 1.6137002
55.849995 106.6755 1.5865833
56.093647 106.56814 1.6237142
57.182999 105.965 1.755
57.377251 105.7805 1.8889999
56.703873 106.219 1.9102501
56.840752 106.1145 1.9002501
56.226002 106.498 1.877
56.352852 106.41035 1.8735714
56.5662 106.2972 1.8808
55.85667 106.68766 1.8621112
56.077873 106.58713 1.8527499
57.383499 105.701 2.1630001
57.641624 105.60612 2.1781249
56.943253 105.94925 2.2049999
57.137005 105.87566 2.1696665
57.332748 105.791 2.174
56.469002 106.225 2.1199999
56.662201 106.17531 2.1118
56.842861 106.08171 2.1424286
56.122749 106.4705 2.12675
56.358776 106.39311 2.1313334
56.561749 106.30737 2.12675
55.855999 106.66488 2.1110001
56.118248 106.55463 2.0183749
55.936749 107.2095 2.0834999
57.421665 105.74082 2.4018333
57.592297 105.71244 2.3583333
56.954002 105.95325 2.3864999
57.134644 105.85978 2.369
57.375835 105.77966 2.3118331
56.680004 106.22367 2.3976667
56.806469 106.09253 2.3871665
56.123314 106.46038 2.3286252
56.381897 106.39189 2.4080999
56.573124 106.30725 2.41225
55.88168 106.62168 2.3710001
55.904999 107.14734 2.3563335
57.399799 105.71281 2.5999999
57.614601 105.6885 2.6019998
57.8283 105.57351 2.6613998
56.968834 105.96451 2.6090002
57.13031 105.86169 2.6374378
57.279503 105.786 2.6894999
56.744499 106.206 2.605
56.839249 106.11375 2.668
56.095436 106.46481 2.611625
56.36969 106.38194 2.6460626
56.596794 106.3022 2.6148498
55.866554 106.65963 2.6141834
55.851002 107.32574 2.635
57.393997 105.7205 2.8348334
57.60228 105.67606 2.842
57.117168 105.88358 2.8549998
57.269337 105.79449 2.8985002
56.858459 106.12079 2.8598752
57.029499 106.0155 2.9555001
56.110199 106.46629 2.8262
56.343575 106.37929 2.8762143
56.579586 106.29709 2.8828335
55.932831 106.60741 2.8752501
56.056 106.52 2.931
55.675167 107.43983 2.8628333
57.4505 105.73325 3.1107502
57.599072 105.6855 3.1150715
57.844891 105.58611 3.1489999
57.098248 105.89675 3.1123748
57.300102 105.79971 3.1312003
56.634872 106.22137 3.1824999
56.903603 106.12163 3.1400669
57.0345 106.024 3.122
56.094501 106.46231 3.11625
56.382553 106.32722 3.1094999
56.634499 106.266 3.0409999
56.773499 106.26 3.1115
55.938377 106.56551 3.1113334
57.445999 105.72567 3.3409998
57.619354 105.64721 3.3745713
57.125042 105.89848 3.3437619
57.350914 105.7915 3.3679166
56.637753 106.21308 3.4024169
56.86264 106.17078 3.3624284
57.047333 106.049 3.3343332
56.151669 106.4405 3.3444998
56.372864 106.32568 3.3645453
55.944599 106.60201 3.3868001
56.049999 106.50834 3.3509998
57.4445 105.723 3.5515001
57.636307 105.64614 3.597389
57.186916 105.90742 3.6091669
57.366165 105.80667 3.6474998
56.63588 106.20262 3.6238749
56.871075 106.16461 3.6549764
57.080002 106.05683 3.6315
56.157333 106.4515 3.5971665
56.378124 106.32881 3.5986252
56.512001 106.305 3.7179999
55.971699 106.6364 3.6222
56.058502 106.52475 3.5825
57.695 105.70375 3.8204999
57.857498 105.60975 3.8997498
57.367901 105.91374 3.8695953
57.576855 105.79443 3.878
56.8927 106.17841 3.8638999
57.112888 106.07527 3.8403888
56.385586 106.47816 3.8477499
56.64925 106.36175 3.8914998
56.782249 106.27875 3.891
57.7285 105.72325 4.1105003
57.360001 105.92875 4.119
57.588299 105.79735 4.07265
56.878399 106.2036 4.1462002
57.144726 106.07614 4.0935001
57.312 106.014 4.1570001
56.382832 106.48716 4.0901666
56.655334 106.33466 4.1066666
56.758499 106.3235 4.1535001
56.335999 106.516 4.1560001
57.730331 105.72666 4.3420005
57.396252 105.92275 4.3432498
57.605663 105.80292 4.3597503
56.894253 106.217 4.3417501
57.150124 106.07974 4.3582501
57.3055 106.0025 4.4095001
56.415333 106.49 4.3519998
56.337002 106.518 4.3670001
57.738251 105.74125 4.6157503
57.35593 105.94722 4.6238565
57.606686 105.80512 4.5916872
56.850502 106.21975 4.6077499
57.189667 106.06767 4.618834
56.415501 106.49049 4.5634999
56.808998 106.328 4.5029998
56.355499 106.50951 4.6469998
57.739002 105.74233 4.8470001
57.371815 105.94043 4.8645625
57.610332 105.81242 4.8658333
56.851002 106.22167 4.8383331
57.1745 106.109 4.8902497
56.419998 106.499 4.8590002
56.962002 106.258 4.9419999
56.380753 106.51375 4.8855
57.737 105.741 5.0159998
57.39529 105.94338 5.1030416
57.638027 105.81525 5.1187224
56.88467 106.228 5.1108336
57.15934 106.1062 5.0875998
56.600002 106.40513 5.1088753
56.758251 106.3235 5.12325
57.412334 105.9405 5.3553333
57.620781 105.83723 5.3690004
57.7505 105.7655 5.3975
56.860668 106.24 5.344667
57.425598 105.94659 5.6101999
57.581799 105.875 5.6070004
57.754753 105.7735 5.5859995
56.862 106.244 5.5565
57.154999 106.093 5.533
57.410999 105.95821 5.8769999
57.622318 105.86713 5.8812141
57.753502 105.7715 5.8175001
57.398499 105.9683 6.1015997
57.611797 105.8782 6.1143003
57.216 106.032 6.0489998
57.439003 105.9731 6.3625002
57.607471 105.88689 6.3718057
