# .PCD v0.7 - Point Cloud Data file format
VERSION 0.7
FIELDS x y z
SIZE 4 4 4
TYPE F F F
COUNT 1 1 1
WIDTH 69
HEIGHT 1
VIEWPOINT -18.2321 96.2205 -1.35163 -0.354149 -0.00701479 0.0211809 0.934923
POINTS 69
DATA ascii
-13.618151 66.898247 1.1265
-13.661799 66.95858 1.3599563
-13.887916 67.151672 1.3509167
-13.663343 66.963409 1.6269063
-13.889333 67.158913 1.6384168
-14.044417 67.431664 1.6343333
-13.7534 66.959595 1.8404
-13.619107 66.968361 1.8876085
-13.847 67.077499 1.888
-14.048624 67.441826 1.8940001
-13.93475 67.252502 1.88
-13.848 67.082253 2.1152501
-14.044575 67.442551 2.10885
-13.936501 67.261253 2.1083333
-13.849833 67.092499 2.3545001
-14.047833 67.44767 2.3566668
-13.940166 67.277168 2.3608334
-13.851126 67.09726 2.6361251
-14.049168 67.453583 2.6458333
-13.939667 67.27417 2.6486666
-13.851833 67.100502 2.8416665
-14.050375 67.457626 2.8864999
-13.94075 67.277504 2.8892498
-13.8525 67.10334 3.0973332
-14.05355 67.464745 3.1401336
-13.941611 67.281502 3.1373889
-13.830375 67.084373 3.384625
-14.050575 67.468254 3.4103749
-13.943251 67.288002 3.418
-13.817599 67.073051 3.6524003
-14.054376 67.474754 3.6103749
-13.945499 67.298332 3.6271667
-13.80875 67.066254 3.8869376
-14.055583 67.47892 3.8515835
-13.9465 67.303001 3.8523333
-13.811175 67.075378 4.091475
-13.614334 67.015816 4.0990834
-14.056167 67.480835 4.1413331
-13.948833 67.310997 4.1410003
-13.811528 67.076988 4.3631525
-13.615834 67.02179 4.3570418
-14.05675 67.482117 4.382875
-13.949 67.311501 4.3983331
-13.825813 67.069031 4.642344
-13.616134 67.025169 4.6470833
-14.05422 67.431206 4.6529398
-13.940666 67.270668 4.5479999
-13.879472 67.095833 4.87925
-13.607063 67.031273 4.8979168
-14.088473 67.429108 4.8523612
-13.9935 67.287506 4.8197498
-14.171 67.5065 4.8980002
-14.032833 67.1745 5.136167
-13.860561 67.043541 5.0991879
-13.621218 67.03286 5.1195383
-14.15063 67.38382 5.1504259
-14.183 67.505997 5.007
-14.29075 67.424377 5.415
-14.2026 67.314598 5.3617997
-14.289333 67.185829 5.6535001
-14.379111 67.351555 5.6396112
-14.512 67.174004 5.973
-14.367625 67.085312 5.9016562
-14.603437 67.404564 5.9013748
-14.466499 67.311996 5.8085003
-14.7735 67.151001 6.2379999
-14.626851 67.106026 6.1361852
-14.849781 67.394714 6.1442809
-14.708793 67.307175 6.0796666
