# .PCD v0.7 - Point Cloud Data file format
VERSION 0.7
FIELDS x y z
SIZE 4 4 4
TYPE F F F
COUNT 1 1 1
WIDTH 68
HEIGHT 1
VIEWPOINT -18.2321 96.2205 -1.35163 -0.354149 -0.00701479 0.0211809 0.934923
POINTS 68
DATA ascii
-31.984833 42.092834 6.9735003
-31.870251 42.409248 6.9691248
-32.012001 42.029667 7.1046667
-31.979918 42.125584 7.1227412
-31.895653 42.357052 7.1242223
-32.015568 42.033154 7.3500161
-31.975595 42.137646 7.3682427
-31.896616 42.361549 7.3551826
-31.838499 42.565002 7.4925003
-32.0345 41.995499 7.5745001
-32.017681 42.048435 7.6505971
-31.973299 42.166897 7.6466422
-31.900181 42.368637 7.6446056
-31.828449 42.590824 7.6007247
-32.035 41.996002 7.7615004
-32.017319 42.079018 7.9343338
-31.969954 42.192799 7.9179053
-31.904242 42.36961 7.8650956
-31.832457 42.593311 7.8535995
-32.021606 42.067932 8.1656151
-31.977743 42.179062 8.1163559
-31.907249 42.386879 8.125742
-32.031563 42.046921 8.4013662
-31.978617 42.186806 8.3517857
-31.914036 42.372818 8.3925915
-32.021103 42.097321 8.6441107
-31.982824 42.191292 8.5863781
-31.913967 42.389549 8.6469698
-32.015778 42.131001 8.8760004
-31.986134 42.205444 8.8465433
-31.916759 42.39209 8.8947783
-32.034 42.10675 9.2002497
-31.990433 42.198536 9.0631666
-31.918793 42.403191 9.1446047
-32.059334 42.037334 9.4726667
-31.980167 42.246334 9.2511673
-31.925516 42.399311 9.4120922
-32.039356 42.099743 9.646575
-31.9935 42.2285 9.7220001
-31.917652 42.430492 9.62819
-32.038563 42.1422 9.9560671
-31.999001 42.234001 9.8959999
-31.95252 42.361523 9.9137602
-31.869041 42.604752 9.89575
-32.091999 41.987999 10.138
-32.034679 42.14254 10.132903
-31.954969 42.366291 10.133276
-31.897167 42.54467 10.187834
-32.043125 42.144276 10.379614
-31.966318 42.351715 10.38073
-31.878536 42.587521 10.364793
-32.052223 42.12545 10.585703
-31.962812 42.378342 10.619947
-32.050575 42.146309 10.853802
-32.006001 42.303001 10.801
-31.972757 42.363598 10.908731
-31.874474 42.631828 10.862063
-32.055943 42.142891 11.090843
-32.013477 42.267632 11.14322
-31.961397 42.40274 11.151157
-31.877224 42.62775 11.113228
-32.226665 41.680214 11.397668
-32.190083 41.762142 11.366084
-32.041046 42.172977 11.378021
-31.996 42.160999 11.491
-32.018627 42.252876 11.344624
-31.91843 42.402828 11.428926
-31.863762 42.607243 11.373859
