# .PCD v0.7 - Point Cloud Data file format
VERSION 0.7
FIELDS x y z
SIZE 4 4 4
TYPE F F F
COUNT 1 1 1
WIDTH 163
HEIGHT 1
VIEWPOINT -18.2321 96.2205 -1.35163 -0.354149 -0.00701479 0.0211809 0.934923
POINTS 163
DATA ascii
35.677845 14.689479 -0.85155857
35.847694 14.573119 -0.89527863
35.340878 14.914557 -0.88575244
35.540672 14.781949 -0.82746917
34.919624 15.202644 -0.86403245
35.103909 15.074838 -0.86546111
34.486752 15.493111 -0.85261112
34.634869 15.39187 -0.86089998
34.817665 15.270388 -0.85615641
34.35442 15.582048 -0.89363092
33.866425 15.908708 -0.90240121
34.038395 15.79134 -0.89904022
33.444672 16.196989 -0.8485406
33.624073 16.07254 -0.88525885
32.998501 16.494499 -0.91166669
33.14336 16.399164 -0.86220717
33.325081 16.274582 -0.90524483
32.696053 16.700043 -0.90393287
32.863243 16.589695 -0.84508306
32.364609 16.926878 -0.85254192
32.550877 16.800219 -0.89575005
37.888287 13.215391 -0.59755206
37.481476 13.484166 -0.64861113
37.6325 13.384115 -0.61385465
37.776749 13.2875 -0.59716666
37.168179 13.694577 -0.63734895
37.365112 13.563647 -0.61077583
36.748417 13.975416 -0.64899999
36.866821 13.898266 -0.61129081
37.029934 13.786805 -0.64243978
36.422016 14.198438 -0.62903291
36.589176 14.085492 -0.59996086
35.976475 14.4975 -0.6645
36.132938 14.393541 -0.61463064
36.301594 14.280761 -0.58332264
35.671989 14.702304 -0.60935664
35.860241 14.575045 -0.64093965
35.366577 14.906652 -0.64166206
35.541191 14.791251 -0.601125
34.938835 15.19644 -0.60220456
35.131889 15.065292 -0.62661177
34.495041 15.496834 -0.59979165
34.657932 15.386395 -0.6141727
34.846561 15.259314 -0.5974375
34.352322 15.590343 -0.64871711
33.851555 15.928674 -0.64906484
34.03738 15.801612 -0.65131152
33.44252 16.206245 -0.60702682
33.632362 16.077871 -0.63463473
33.151489 16.403404 -0.61883295
33.335281 16.279259 -0.62046874
32.654797 16.738569 -0.64528924
32.853134 16.605034 -0.59905195
33.011002 16.500668 -0.53900003
32.374092 16.929924 -0.62098545
32.554928 16.805618 -0.64469528
37.907665 13.216171 -0.4278
37.495499 13.485806 -0.35955557
37.639786 13.38724 -0.36993608
37.81078 13.276228 -0.33300555
37.167919 13.707896 -0.35252547
37.34333 13.588946 -0.37357041
36.855194 13.915948 -0.38590035
37.0396 13.794539 -0.34809634
36.44244 14.193598 -0.39866075
36.625134 14.073804 -0.35151884
35.980999 14.499 -0.46200001
36.136593 14.401611 -0.35957149
36.30328 14.286158 -0.37436256
35.666477 14.714173 -0.40449107
35.854477 14.589136 -0.3709622
35.365086 14.918094 -0.36961991
35.538563 14.802095 -0.37191999
34.958298 15.19271 -0.34869349
35.14431 15.065907 -0.39223215
34.629944 15.415677 -0.36118278
34.830032 15.281183 -0.35238433
34.359364 15.598895 -0.40389758
34.505749 15.501166 -0.35141668
33.871742 15.926227 -0.36675617
34.047188 15.805969 -0.41040626
33.462852 16.201002 -0.40160415
33.626366 16.090643 -0.37437177
33.147236 16.412146 -0.40659523
33.309917 16.304996 -0.3522262
32.694965 16.719694 -0.40750837
32.87405 16.600752 -0.3807739
33.01495 16.504875 -0.40060002
32.383038 16.933216 -0.37447423
32.582104 16.798719 -0.35954705
32.154438 17.087296 -0.3829301
37.911667 13.21564 -0.14761111
37.64328 13.39475 -0.12972221
37.824272 13.276204 -0.099119321
37.17437 13.712442 -0.12578051
37.363258 13.585635 -0.1299483
36.870644 13.91662 -0.13804181
37.045044 13.802704 -0.097351193
36.449402 14.199113 -0.15172917
36.642826 14.072842 -0.10056249
36.117184 14.424496 -0.10142929
36.311432 14.288519 -0.13044861
35.684425 14.713367 -0.1475189
35.854755 14.600452 -0.11681937
36.001999 14.507 -0.0020000001
35.371197 14.925363 -0.11756383
35.557308 14.799767 -0.12730832
34.958569 15.203991 -0.09459205
35.131752 15.084871 -0.12713072
34.642387 15.416438 -0.090323284
34.803566 15.306885 -0.12506998
34.361107 15.60538 -0.14702673
34.513 15.504499 -0.098291673
33.877708 15.932188 -0.12863666
34.028584 15.829677 -0.15120371
33.462852 16.208353 -0.16612764
33.656548 16.082211 -0.12645932
33.152954 16.421122 -0.15126446
33.347443 16.28981 -0.12788889
32.722507 16.713663 -0.14704166
32.840878 16.633566 -0.14086705
33.018097 16.514109 -0.14159723
32.422546 16.917593 -0.11964337
32.602261 16.798008 -0.10456526
32.111134 17.126657 -0.14722241
32.26733 17.023939 -0.078752629
37.640347 13.40889 0.14123979
37.839417 13.274761 0.11465225
37.178879 13.722095 0.15410385
37.344604 13.609148 0.11598381
36.861095 13.932727 0.097332321
37.055553 13.804336 0.14768194
36.456615 14.205752 0.14655061
36.642948 14.079915 0.10497223
36.147499 14.413937 0.12021816
36.318451 14.291014 0.097937502
35.687855 14.721321 0.084059529
35.857674 14.607409 0.10947034
36.006294 14.508958 0.099916667
35.386581 14.926159 0.1393411
35.577175 14.79744 0.12398425
34.964333 15.208461 0.14548889
35.139317 15.091847 0.11684924
34.656994 15.415982 0.1089801
34.831856 15.296957 0.095375001
34.366642 15.611772 0.097373739
34.518299 15.509525 0.097425006
33.913914 15.920012 0.14922032
34.02615 15.839846 0.096840903
33.444645 16.236193 0.14514861
33.644871 16.100988 0.14665596
33.130993 16.450163 0.12944034
33.322582 16.32085 0.15054317
32.730209 16.721125 0.14095832
32.862568 16.63233 0.14212908
33.024185 16.519627 0.091875002
32.424671 16.928356 0.14799604
32.604443 16.807615 0.14785942
32.293873 17.017376 0.14901562
36.461128 14.213346 0.39761311
36.327782 14.300231 0.36306587
33.614632 16.144884 0.38523084
32.342999 17.082001 0.347
