# .PCD v0.7 - Point Cloud Data file format
VERSION 0.7
FIELDS x y z
SIZE 4 4 4
TYPE F F F
COUNT 1 1 1
WIDTH 355
HEIGHT 1
VIEWPOINT -18.2321 96.2205 -1.35163 -0.354149 -0.00701479 0.0211809 0.934923
POINTS 355
DATA ascii
-22.117764 66.331795 -2.8872025
-22.370821 66.345932 -2.628464
-22.093952 66.357895 -2.6224999
-21.897362 66.364555 -2.6071
-21.630964 66.371475 -2.6276288
-21.388939 66.380684 -2.6120625
-21.136326 66.388977 -2.60725
-20.860964 66.397476 -2.6228335
-20.629786 66.406273 -2.6235833
-20.39537 66.417778 -2.6253498
-22.359554 66.357246 -2.3639722
-22.11725 66.366302 -2.3743
-21.9014 66.373787 -2.3907626
-21.646173 66.381859 -2.4013336
-21.37594 66.393227 -2.3575358
-21.141098 66.400436 -2.3906515
-20.886812 66.408562 -2.3823752
-20.634861 66.41729 -2.3588278
-20.39296 66.426895 -2.3637898
-20.118874 66.436981 -2.3658311
-22.36167 66.366875 -2.1093054
-22.098751 66.377037 -2.1266899
-21.853466 66.386398 -2.1411164
-21.59626 66.39679 -2.1129167
-21.390322 66.403969 -2.119611
-21.130962 66.412437 -2.1146092
-20.890541 66.420624 -2.1396666
-20.637108 66.429932 -2.1041164
-20.37734 66.437027 -2.1245501
-20.147635 66.446976 -2.1216216
-22.365501 66.39669 -1.8795301
-22.131083 66.420265 -1.8566834
-21.874763 66.410728 -1.8830973
-21.606499 66.413628 -1.8928125
-21.403076 66.42308 -1.8863626
-21.148611 66.430275 -1.8909416
-20.86692 66.440628 -1.8891901
-20.639179 66.45829 -1.8816071
-20.39225 66.456749 -1.8929375
-20.140059 66.465019 -1.8996167
-19.890099 66.471474 -1.8929751
-22.231001 66.504997 -1.755
-21.029501 66.535004 -1.7565
-20.566334 66.553665 -1.7520001
-20.314335 66.552086 -1.7618333
-20.06675 66.560753 -1.7509999
-22.363585 66.487808 -1.7210833
-22.368126 66.536591 -1.5864583
-22.102999 66.532143 -1.648111
-21.865196 66.546127 -1.6325936
-21.618927 66.543999 -1.6637499
-21.394209 66.558083 -1.6437083
-21.154499 66.567032 -1.6341249
-20.889894 66.570702 -1.6502556
-20.635517 66.587311 -1.6210423
-20.381519 66.586929 -1.6487876
-20.125156 66.602501 -1.6235312
-19.903208 66.6045 -1.6479999
-22.649672 66.537361 -1.3654751
-22.371666 66.547417 -1.3907918
-22.116373 66.555626 -1.3590417
-21.859594 66.565125 -1.366125
-21.606667 66.575134 -1.3580002
-21.401459 66.581917 -1.3514582
-21.124832 66.591835 -1.3600464
-20.856424 66.598396 -1.3781917
-20.626333 66.607056 -1.3568854
-20.3881 66.616814 -1.3582834
-20.149881 66.62468 -1.3622938
-22.617716 66.550652 -1.1168427
-22.357906 66.558517 -1.1476203
-22.119875 66.567245 -1.1145
-21.862823 66.5755 -1.1288571
-21.611336 66.58564 -1.1106
-21.342749 66.592422 -1.1295716
-21.12413 66.602646 -1.1169523
-20.90765 66.608849 -1.1406
-20.658464 66.616783 -1.12175
-20.392462 66.62854 -1.0953125
-20.125 66.636398 -1.1202857
-22.63645 66.561844 -0.88837498
-22.368073 66.571579 -0.8685714
-22.136883 66.580681 -0.86237139
-21.868578 66.588974 -0.86382037
-21.627821 66.596649 -0.88536119
-21.36672 66.60601 -0.8802197
-21.11754 66.616371 -0.87460005
-20.902573 66.622368 -0.89922917
-20.648668 66.632553 -0.8593055
-20.395901 66.636711 -0.89232498
-20.130188 66.64769 -0.86940622
-22.639112 66.572701 -0.64100003
-22.382875 66.584129 -0.60975003
-22.134678 66.590401 -0.61276191
-21.88175 66.598831 -0.60329628
-21.660431 66.604118 -0.65631169
-21.361168 66.617744 -0.61804169
-21.097799 66.626022 -0.62803
-20.866375 66.63456 -0.63178122
-20.601965 66.645027 -0.60245001
-20.398666 66.650581 -0.63966662
-20.161194 66.660454 -0.62399286
-22.626783 66.580818 -0.37582144
-22.384459 66.589165 -0.36458334
-22.135918 66.596375 -0.38636115
-21.887194 66.603683 -0.39965832
-21.60915 66.616348 -0.36635
-21.362593 66.625359 -0.4043
-21.11335 66.63559 -0.38915002
-20.843468 66.644058 -0.36637503
-20.61281 66.651886 -0.36592004
-20.367708 66.661629 -0.38008332
-20.127569 66.67215 -0.39123002
-19.964624 66.680756 -0.380375
-22.655563 66.583183 -0.13700001
-22.393734 66.595535 -0.10688333
-22.135941 66.602615 -0.1390985
-21.871721 66.612892 -0.15083541
-21.649794 66.620171 -0.10956666
-21.365488 66.629997 -0.13700555
-21.112375 66.636879 -0.14183335
-20.8708 66.645714 -0.12312143
-20.595461 66.654617 -0.12334
-20.351908 66.663712 -0.139125
-20.098833 66.672585 -0.14195834
-19.959665 66.678413 -0.138
-22.622194 66.592781 0.14252776
-22.413486 66.603249 0.11154761
-22.15312 66.609512 0.1232738
-21.884394 66.616699 0.11305179
-21.663374 66.621414 0.10962499
-21.365166 66.6315 0.11416665
-21.103399 66.641602 0.12990001
-20.87355 66.650185 0.12073571
-20.605812 66.659187 0.1085625
-20.35253 66.667618 0.13991667
-20.100937 66.675102 0.1097625
-19.955791 66.680122 0.10066667
-22.358999 66.487 0.4576667
-22.144667 66.487999 0.45716667
-22.866655 66.589935 0.36590624
-22.59144 66.596313 0.38811904
-22.357552 66.569824 0.37718749
-22.104582 66.585999 0.35055554
-21.875408 66.588394 0.35985833
-21.644344 66.585754 0.35306251
-21.369623 66.605309 0.34549999
-21.119678 66.592781 0.38964286
-20.865313 66.616058 0.36938891
-20.61727 66.614655 0.38340738
-20.370237 66.62294 0.4023
-20.117418 66.640701 0.38283336
-19.942898 66.636292 0.39129999
-22.378 66.4925 0.61300004
-22.869875 66.599976 0.64782494
-22.59614 66.601997 0.6097222
-22.388439 66.564209 0.61177087
-22.37925 66.495758 0.79675001
-22.869194 66.60083 0.88655555
-22.601095 66.601738 0.89781296
-22.37923 66.569168 0.87506253
-22.6665 66.494995 1.0580001
-22.635906 66.574341 1.1044375
-22.388166 66.582466 1.1115121
-22.86554 66.623955 1.3855834
-22.606459 66.633041 1.3560416
-22.352028 66.6455 1.3521112
-22.87895 66.627411 1.6218123
-22.608749 66.64006 1.6020625
-22.354973 66.654251 1.6467223
-22.855364 66.634941 1.8747143
-22.611567 66.645485 1.8578167
-22.357376 66.660957 1.8922082
-22.872814 66.64196 2.1162641
-22.60355 66.654648 2.1345
-22.35964 66.667526 2.1381669
-22.853195 66.650299 2.3703001
-22.626551 66.660294 2.3728499
-22.361664 66.673424 2.3836668
-22.850752 66.653862 2.6135833
-22.607401 66.66555 2.6266501
-22.375351 66.677231 2.6224003
-22.849293 66.659332 2.8754063
-22.650085 66.668419 2.8470833
-22.350386 66.684608 2.8739858
-22.856218 66.665359 3.1022503
-22.631308 66.674881 3.1387382
-22.383249 66.686859 3.1276786
-22.882376 66.670715 3.3585415
-22.660786 66.67836 3.3684642
-22.364054 66.691605 3.378298
-22.882938 66.671753 3.605
-22.650732 66.68045 3.6359553
-22.374586 66.694565 3.6247499
-22.885 66.676628 3.8519585
-22.648071 66.687698 3.8927917
-22.365389 66.705574 3.8624859
-22.886292 66.679916 4.148375
-22.651779 66.691017 4.1273212
-22.365017 66.71077 4.1191664
-22.887312 66.681747 4.3955626
-22.610058 66.696587 4.3718171
-22.384726 66.70829 4.351512
-22.871929 66.689537 4.6555362
-22.648308 66.699791 4.6238832
-22.376959 66.712212 4.6497917
-22.849207 66.69416 4.88275
-22.615835 66.704437 4.8646755
-22.379501 66.718437 4.8970003
-22.862509 66.69722 5.1219082
-22.648726 66.706612 5.1179881
-22.380499 66.720665 5.1438751
-22.900387 66.700127 5.3752227
-22.62418 66.711288 5.3623748
-22.38175 66.723686 5.3910003
-22.912155 66.701477 5.5991082
-22.62322 66.716141 5.6242003
-22.383583 66.727501 5.6382918
-22.162374 66.739044 5.6220837
-22.900612 66.706947 5.874722
-22.653032 66.718315 5.8712192
-22.384687 66.729561 5.8858752
-22.116533 66.744438 5.8697495
-22.910549 66.712006 6.1205997
-22.629814 66.725784 6.1414065
-22.388041 66.738335 6.1339169
-22.200918 66.746498 6.0813336
-22.107063 66.754379 6.1546874
-21.866785 66.760452 6.0982337
-22.869041 66.719711 6.3804574
-22.644417 66.728668 6.3705831
-22.389437 66.74131 6.3818126
-22.239851 66.749275 6.4075747
-22.081835 66.755547 6.3572497
-21.863632 66.765152 6.3450708
-21.64719 66.773415 6.3744407
-22.867752 66.72744 6.6342192
-22.594124 66.735756 6.6451249
-22.390749 66.743492 6.6297917
-22.237749 66.749748 6.6615
-22.113901 66.755844 6.5962496
-21.879313 66.767189 6.6081877
-21.650581 66.774811 6.6421947
-21.36886 66.784973 6.6421113
-22.842176 66.732643 6.8787856
-22.596935 66.742378 6.8940001
-22.39275 66.747879 6.8780622
-22.135944 66.757889 6.8551383
-21.880501 66.769249 6.8557506
-21.651667 66.776299 6.8896251
-21.369501 66.785713 6.8889165
-21.100584 66.796623 6.8904166
-20.869385 66.798347 6.881916
-20.616129 66.800583 6.8590837
-20.370417 66.804626 6.8456249
-22.872095 66.737373 7.1322503
-22.609301 66.746796 7.12325
-22.445251 66.749008 7.0272498
-22.549248 66.751251 7.2402501
-22.385532 66.754356 7.1542902
-22.138166 66.763039 7.1036248
-21.87225 66.773254 7.1327004
-21.649851 66.778694 7.1379166
-21.37114 66.789169 7.1368332
-21.128101 66.796204 7.12995
-20.872519 66.798531 7.1033883
-20.630585 66.80336 7.1264586
-20.415089 66.812782 7.1171293
-22.611862 66.741005 7.4107499
-22.389683 66.74231 7.4537168
-22.237499 66.744751 7.4549999
-22.5495 66.751999 7.3392496
-22.396873 66.757248 7.3381252
-22.125061 66.761314 7.3383436
-21.89802 66.767456 7.3706331
-21.64221 66.774277 7.3954415
-21.37026 66.787033 7.3862586
-21.112982 66.793541 7.3919625
-20.873453 66.796158 7.3656945
-20.612535 66.799393 7.3926778
-20.369297 66.807396 7.3883886
-22.626835 66.674683 7.5853004
-22.390305 66.67691 7.6065879
-22.134319 66.68644 7.5829697
-20.870667 66.693253 7.5862503
-20.651695 66.719185 7.5980554
-20.3822 66.700668 7.6054001
-22.606125 66.76313 7.7414999
-22.417667 66.76767 7.7161665
-22.151917 66.776756 7.7245831
-22.60725 66.766624 7.8913746
-22.355089 66.777824 7.8759189
-22.883125 66.762817 8.1317501
-22.610498 66.773628 8.1412926
-22.355268 66.783981 8.121336
-22.851013 66.769737 8.3805113
-22.614229 66.77623 8.3892078
-22.35693 66.786263 8.3672266
-22.870071 66.772873 8.6148815
-22.614862 66.782791 8.6385698
-22.366093 66.792336 8.6230106
-22.845871 66.778313 8.8567505
-22.642902 66.785301 8.9064665
-22.362286 66.796394 8.8680706
-22.851322 66.785286 9.123107
-22.598461 66.801659 9.1337337
-22.372061 66.804665 9.1064539
-22.843901 66.794388 9.3906832
-22.650517 66.801651 9.3813677
-22.358463 66.81208 9.3703451
-22.874607 66.798264 9.6123333
-22.62299 66.809372 9.6178265
-22.387392 66.819275 9.6101074
-22.89555 66.804451 9.8569765
-22.644865 66.813766 9.8650513
-22.360273 66.824165 9.8563566
-22.905668 66.81102 10.120749
-22.617855 66.820961 10.120357
-22.398361 66.826416 10.137334
-22.894918 66.80867 10.360111
-22.646446 66.823418 10.362115
-22.333145 66.83947 10.372037
-22.897667 66.818703 10.632792
-22.637812 66.830498 10.633407
-22.395792 66.84137 10.635875
-22.875498 66.8265 10.904667
-22.639084 66.832184 10.879072
-22.397751 66.844063 10.900875
-22.88715 66.828369 11.1166
-22.621679 66.833611 11.120928
-22.398333 66.84333 11.140209
-22.875811 66.839409 11.351809
-22.646902 66.859848 11.405084
-22.392502 66.870506 11.369278
-22.844677 66.844055 11.626905
-22.586166 66.848839 11.626834
-22.452749 66.861244 11.639249
-22.872524 66.846786 11.880869
-22.605608 66.856392 11.865097
-22.404083 66.869644 11.869467
-22.143074 66.874039 11.891093
-22.847036 66.853889 12.123285
-22.60585 66.859146 12.1243
-22.379017 66.870369 12.1206
-22.135559 66.890297 12.103488
-22.87672 66.85759 12.368344
-22.596851 66.871002 12.375234
-22.392988 66.878395 12.361667
-22.2185 66.876503 12.301501
-22.883524 66.862778 12.61712
-22.616001 66.873497 12.623701
-22.451612 66.891396 12.587222
-22.60535 66.881149 12.8644
-22.4825 66.883499 12.768499
-22.676125 66.881378 13.084
