# .PCD v0.7 - Point Cloud Data file format
VERSION 0.7
FIELDS x y z
SIZE 4 4 4
TYPE F F F
COUNT 1 1 1
WIDTH 125
HEIGHT 1
VIEWPOINT -18.2321 96.2205 -1.35163 -0.354149 -0.00701479 0.0211809 0.934923
POINTS 125
DATA ascii
82.080002 -3.8799999 8.3205557
81.612999 -3.5550001 8.4239998
81.042999 -3.418 8.4720001
81.371002 -3.49 8.4490004
82.156998 -4.0576248 8.6022501
82.083168 -3.8838668 8.5920334
81.420998 -3.546 8.5500002
81.599998 -3.5830002 8.6575003
81.782997 -3.6199999 8.625
82.03775 -3.721 8.6094999
80.961334 -3.3766668 8.6506662
81.154999 -3.4229999 8.6859999
81.297501 -3.4860001 8.5855007
81.508003 -3.4949999 8.6359997
82.181992 -4.0777998 8.8877993
82.080284 -3.9025714 8.8151426
81.585495 -3.5757 8.8231001
81.954002 -3.7073333 8.906333
82.025749 -3.72525 8.8744993
81.095993 -3.4085999 8.8559999
81.366669 -3.4888334 8.8409996
82.197243 -4.0584998 9.1295004
82.087029 -3.8835833 9.1221666
81.615837 -3.5728333 9.1395006
81.981003 -3.743 9.1890001
82.037834 -3.7106667 9.1761665
81.127998 -3.421 9.1420002
81.415253 -3.4897499 9.1228752
82.177505 -4.0432501 9.3012505
82.087471 -3.9125953 9.3555708
81.654495 -3.5550001 9.3239994
81.778503 -3.618 9.2875004
82.030861 -3.7194664 9.3685675
81.175995 -3.42275 9.3050003
81.385498 -3.4597502 9.4435005
81.555 -3.4960001 9.3330002
82.177498 -4.0608335 9.5985003
82.073402 -3.907517 9.6185665
81.664337 -3.5539999 9.701333
81.929001 -3.625 9.6171255
82.037415 -3.7076666 9.6374168
81.125999 -3.362 9.7075005
81.391502 -3.4159999 9.68575
81.611496 -3.4542501 9.6257496
82.160004 -4.0409999 9.7799997
82.077072 -3.9069333 9.8220329
81.664001 -3.5539999 9.8170004
82.041504 -3.7024999 9.8330002
81.196999 -3.4219999 9.7814999
81.328003 -3.4555001 9.8555002
82.170998 -4.0409999 10.189
82.073997 -3.8527501 10.097417
81.720001 -3.6129999 10.0335
82.025162 -3.6633 10.137533
81.10067 -3.3599999 10.117333
81.355873 -3.4349999 10.117375
81.650002 -3.497 10.212
82.161919 -4.0489998 10.387084
82.061478 -3.8564792 10.370542
81.907005 -3.6018333 10.3755
82.018753 -3.702292 10.36475
81.326996 -3.3969998 10.3985
81.597672 -3.4946663 10.359333
82.153831 -4.039 10.642833
81.989998 -3.9130001 10.693
82.071716 -3.9205 10.589167
81.641998 -3.55 10.683
81.937836 -3.5831668 10.578334
82.033005 -3.684 10.5205
81.122795 -3.3322003 10.655399
81.388626 -3.4384375 10.615499
82.141502 -4.0375004 10.89975
81.991173 -3.8471668 10.822833
82.056007 -3.8875003 10.873713
81.90667 -3.5719998 10.874001
82.0215 -3.6724167 10.832708
81.1595 -3.3049998 10.9755
81.373665 -3.3880002 10.904666
81.608002 -3.4650002 10.872499
81.751999 -3.5 10.863
82.092003 -4.0349998 11.053
81.958168 -3.892 11.165833
82.033539 -3.8789334 11.099767
81.937401 -3.5854001 11.126699
82.017334 -3.687 11.0765
81.155128 -3.3113751 11.1555
81.434502 -3.3901665 11.134999
81.620308 -3.4748664 11.091467
80.901001 -3.2383335 11.118
81.099998 -3.247 11.03
81.988495 -3.7680001 11.2555
82.023376 -3.821625 11.322875
81.936073 -3.5918572 11.394501
82.015747 -3.6833749 11.377375
81.077003 -3.3004999 11.309999
81.335999 -3.3525 11.38575
81.663399 -3.4492002 11.3748
81.773003 -3.5 11.332
80.816498 -3.2344999 11.250999
81.009003 -3.2409999 11.48
81.901199 -3.8787498 11.63665
82.034332 -3.7586668 11.738334
81.932999 -3.5942001 11.656834
82.027756 -3.6827502 11.578
81.187668 -3.3139999 11.6445
81.364204 -3.3672001 11.6044
81.678497 -3.4664998 11.55
80.869743 -3.2197499 11.6355
81.914787 -3.5778575 11.884929
82.015503 -3.7379999 11.844
81.049004 -3.2980001 11.797
81.460175 -3.3800001 11.970667
81.611 -3.4052501 11.84375
81.879997 -3.4445 11.959
80.837242 -3.1868749 11.874875
81.198502 -3.2480001 11.8965
81.165001 -3.302 12.191
81.359604 -3.3373001 12.088099
81.774666 -3.4968331 12.137833
81.055 -3.24125 12.106501
81.713997 -3.5673332 12.461666
81.139252 -3.2857499 12.34
81.704498 -3.4553335 12.3905
81.752998 -3.4949999 12.437
81.196007 -3.2259998 12.34
