# .PCD v0.7 - Point Cloud Data file format
VERSION 0.7
FIELDS x y z
SIZE 4 4 4
TYPE F F F
COUNT 1 1 1
WIDTH 112
HEIGHT 1
VIEWPOINT -18.2321 96.2205 -1.35163 -0.354149 -0.00701479 0.0211809 0.934923
POINTS 112
DATA ascii
5.341568 -34.141846 0.12516932
5.157486 -33.869415 0.13505663
5.0435386 -33.746384 0.24730769
5.3120313 -34.029408 0.35303125
5.1789546 -33.8881 0.38732791
5.3085003 -33.8965 0.3125
4.8889623 -33.680901 0.37563944
5.0435243 -33.739601 0.39998811
5.3527985 -34.121986 0.60163695
5.1730533 -33.880047 0.62464029
4.9091892 -33.682426 0.62698287
5.0423079 -33.731339 0.59802568
5.3457503 -34.053406 0.89659375
5.1733928 -33.866001 0.87847096
4.6369543 -33.594021 0.90798438
4.8673959 -33.648689 0.87213945
5.0388694 -33.718269 0.85101599
4.5254622 -33.483315 0.88772726
5.3684325 -34.12944 1.0905159
5.1625586 -33.848278 1.1270787
5.2662363 -33.951172 1.1430278
4.6639981 -33.605164 1.11466
4.8719234 -33.640736 1.1220882
5.0389109 -33.713848 1.1180223
4.5587559 -33.476856 1.1820881
5.3742709 -34.125431 1.4419901
5.1670518 -33.842731 1.4083687
5.2778807 -33.963406 1.3547143
4.6446333 -33.605709 1.4254967
4.8510303 -33.619797 1.373328
5.059628 -33.716202 1.3493816
4.5660834 -33.476196 1.3658334
5.3645763 -34.099258 1.5578958
5.1764688 -33.840511 1.6375269
5.2903605 -33.968941 1.6274099
4.6848993 -33.559189 1.6182957
4.884181 -33.624897 1.6173995
5.0570374 -33.699955 1.6311268
4.5636606 -33.476025 1.6526929
5.357028 -34.093994 1.9024436
5.1634946 -33.82275 1.8774425
5.2982264 -33.974922 1.8530155
4.6529875 -33.597637 1.8929094
4.8688412 -33.61058 1.8632416
5.0699682 -33.711163 1.8705513
4.5892382 -33.48188 1.8811334
5.3638444 -34.017399 2.1454084
5.1688108 -33.817547 2.1369896
5.3026528 -33.963318 2.1510279
4.7055945 -33.539055 2.1241751
4.8926225 -33.611641 2.1189036
5.0558133 -33.68763 2.126353
4.5853028 -33.474644 2.1420748
5.367619 -34.103432 2.3884952
5.1724877 -33.813789 2.3763139
5.3093915 -33.970844 2.3899376
4.6591105 -33.567825 2.367995
4.8905716 -33.596313 2.3607874
5.0678091 -33.692959 2.3707294
4.5652556 -33.468456 2.4450223
5.3718567 -34.006645 2.5832143
5.1812305 -33.810577 2.6512218
5.3224154 -33.973686 2.6301408
4.6856003 -33.522823 2.6164923
4.8914986 -33.590771 2.6102092
5.0532112 -33.666622 2.6263976
4.590487 -33.469852 2.6405439
5.3644648 -34.081451 2.8145835
5.1831841 -33.802628 2.8804169
5.3065138 -33.951824 2.8771372
4.6558561 -33.559372 2.833797
4.9094043 -33.585018 2.8638954
4.5722609 -33.43771 2.9065855
4.7690001 -33.499001 2.905
5.2021317 -33.806095 3.1254122
5.3212261 -33.954674 3.0844913
4.7092056 -33.51255 3.0981288
4.9277616 -33.582279 3.1176085
4.5702996 -33.439953 3.1184628
4.7600622 -33.49519 3.10725
5.3643389 -34.089535 3.2918751
5.19032 -33.789307 3.3704796
5.3073301 -33.935738 3.3742499
4.6772037 -33.54665 3.3038528
4.5853758 -33.433552 3.3824115
4.7604389 -33.487045 3.3494167
5.3492732 -34.059242 3.7249396
5.2111669 -33.796005 3.5987234
5.3073988 -33.927055 3.6248574
4.6496162 -33.545876 3.6798468
4.5807848 -33.42799 3.587781
4.7613564 -33.480392 3.6044288
5.2103338 -33.778584 3.829021
5.3002386 -33.902111 3.8686233
4.7017498 -33.507 3.908
4.9079561 -33.539661 3.9008391
4.6013117 -33.428963 3.8517609
4.7938576 -33.487709 3.8559201
5.2220836 -33.772499 4.141583
5.2950954 -33.88784 4.1203237
4.6384454 -33.523212 4.1752434
4.636272 -33.44788 4.1185102
5.3417001 -33.996201 4.283
4.6720004 -33.522003 4.3166671
4.6139445 -33.389782 4.3892469
4.6137877 -33.521458 4.6013441
4.614593 -33.418262 4.6166506
5.2310629 -33.753983 4.8063545
5.3207731 -33.879051 4.8663898
4.6121111 -33.512642 4.9605556
4.5925999 -33.377857 4.8937082
4.8339505 -33.454193 4.8621898
