# .PCD v0.7 - Point Cloud Data file format
VERSION 0.7
FIELDS x y z
SIZE 4 4 4
TYPE F F F
COUNT 1 1 1
WIDTH 59
HEIGHT 1
VIEWPOINT -18.2321 96.2205 -1.35163 -0.354149 -0.00701479 0.0211809 0.934923
POINTS 59
DATA ascii
19.887001 -17.8195 4.9510002
19.937 -17.664 4.9970002
20.091749 -17.53875 4.9942503
20.199501 -17.451801 4.9819999
20.329103 -17.323906 4.9896379
20.44985 -17.200199 4.9858999
20.620707 -17.073088 4.9729791
20.71632 -16.952751 4.9823194
20.851999 -16.836021 4.9767084
21.001751 -16.76075 4.9195004
20.967899 -16.719402 4.9795332
18.914625 -18.032001 5.2441254
19.639965 -17.89222 5.1587787
19.793125 -17.7999 5.1147747
18.89152 -17.635336 5.2281394
19.110617 -17.637758 5.2304087
19.358353 -17.624844 5.2338099
19.893431 -17.663641 5.1559134
20.059788 -17.545057 5.1022649
19.132078 -17.351717 5.2168193
19.362629 -17.395149 5.2212701
19.626987 -17.371096 5.2246737
19.87709 -17.367294 5.227911
20.133913 -17.394882 5.1767583
20.311342 -17.299755 5.1291742
19.135733 -17.134802 5.2066221
19.38327 -17.132923 5.2098527
19.607502 -17.121687 5.2122035
19.855448 -17.114422 5.2147832
20.106394 -17.108452 5.21665
20.39135 -17.144918 5.1727986
20.568531 -17.068663 5.1364627
19.356972 -16.901392 5.1997285
19.641121 -16.84453 5.1990972
19.86268 -16.897139 5.203403
20.134481 -16.852428 5.2029238
20.387516 -16.874249 5.2057266
20.663546 -16.913536 5.1650314
20.830362 -16.827579 5.1269393
19.628302 -16.609034 5.1871834
19.879181 -16.637779 5.1901636
20.122025 -16.621181 5.1896362
20.362467 -16.648766 5.1944485
20.609072 -16.641275 5.1973453
20.881445 -16.663921 5.171382
21.079706 -16.593918 5.1269422
19.866299 -16.413052 5.1807466
20.127798 -16.368341 5.1795487
20.380301 -16.390951 5.1832724
20.611599 -16.382336 5.1842837
20.864847 -16.369755 5.1858668
21.145052 -16.379745 5.1617231
20.128849 -16.132769 5.1690931
20.35895 -16.134501 5.1702919
20.59593 -16.143366 5.1719613
20.860586 -16.116512 5.1738358
20.37253 -15.867051 5.1575708
20.645651 -15.880864 5.160553
20.637711 -15.635544 5.1482625
