# .PCD v0.7 - Point Cloud Data file format
VERSION 0.7
FIELDS x y z
SIZE 4 4 4
TYPE F F F
COUNT 1 1 1
WIDTH 914
HEIGHT 1
VIEWPOINT -18.2321 96.2205 -1.35163 -0.354149 -0.00701479 0.0211809 0.934923
POINTS 914
DATA ascii
-79.172997 -36.988998 -1.051
-78.936996 -36.806999 -1.058
-78.800003 -36.675999 -1.044
-78.328499 -36.192001 -1.0420001
-78.225006 -36.080002 -1.0434999
-78.100502 -35.959 -1.0369999
-77.931999 -35.834332 -1.1006666
-77.638 -35.841499 -1.1245
-77.80925 -35.659 -1.0525
-77.607002 -35.598999 -1.135
-77.550163 -35.392166 -1.0711666
-77.401001 -35.341 -1.1255
-77.322998 -35.161335 -1.067
-77.106003 -34.941502 -1.0627501
-76.93084 -34.788834 -1.1066667
-76.832001 -34.655998 -1.0580001
-75.960495 -33.752998 -1.0475
-73.259995 -30.97225 -1.105
-73.103256 -30.814125 -1.101375
-72.877998 -30.811001 -1.196
-72.910248 -30.611626 -1.09225
-72.755005 -30.4515 -1.094
-72.627625 -30.31525 -1.09075
-72.425003 -30.107998 -1.0888751
-72.154495 -30.054501 -1.2060001
-72.288002 -29.967667 -1.0976667
-72.14212 -29.846813 -1.1341875
-72.003494 -29.671501 -1.0945001
-71.925095 -29.638 -1.1233
-71.448997 -29.503 -1.224
-71.796997 -29.463501 -1.0781666
-71.652824 -29.318167 -1.1365
-71.4785 -29.394501 -1.2244999
-71.522003 -29.17675 -1.1192501
-71.426498 -29.08025 -1.10625
-71.306999 -28.973249 -1.1175001
-71.185249 -28.853001 -1.1452501
-79.182999 -37.060501 -0.96200001
-79.175835 -36.966831 -0.85008335
-78.970001 -36.822502 -0.96649998
-78.815002 -36.682999 -0.89349997
-78.717003 -36.5755 -0.91374999
-78.46225 -36.320999 -0.91299999
-78.351006 -36.202 -0.89133328
-78.2285 -36.081749 -0.90925002
-78.078835 -35.924999 -0.87466669
-77.98867 -35.83733 -0.87066668
-77.826744 -35.666836 -0.85824996
-77.75 -35.598999 -0.90499997
-77.5905 -35.428501 -0.87180007
-77.432495 -35.256248 -0.79825002
-77.333504 -35.165668 -0.91933328
-77.189499 -35.009499 -0.83449996
-77.083298 -34.906197 -0.88679999
-76.954163 -34.777668 -0.86833334
-76.821121 -34.636501 -0.85887498
-76.730499 -34.551498 -0.86325002
-75.973999 -33.759167 -0.85549998
-75.832603 -33.605999 -0.84460002
-75.748001 -33.5345 -0.93799996
-75.602089 -33.37442 -0.85016656
-73.348503 -31.067501 -0.95599997
-73.308334 -30.970211 -0.8431251
-73.137665 -30.817667 -0.90916663
-73.078003 -30.713749 -0.81449997
-72.943596 -30.605999 -0.87989998
-72.81292 -30.45825 -0.84683341
-72.665871 -30.331123 -0.91949999
-72.559998 -30.189499 -0.85650003
-72.436668 -30.086084 -0.91100001
-72.306999 -29.944376 -0.88674998
-72.178604 -29.815601 -0.89559996
-72.086998 -29.705999 -0.852
-71.942703 -29.559702 -0.83749998
-71.805496 -29.420902 -0.87629998
-71.690254 -29.304123 -0.86424994
-71.58683 -29.203165 -0.88633329
-71.440002 -29.085499 -0.94499999
-71.244003 -28.892 -0.75999999
-70.972504 -28.611 -0.89699996
-78.83567 -36.692501 -0.65099996
-78.720161 -36.577168 -0.65716672
-78.681503 -36.462299 -0.64029998
-78.475494 -36.327 -0.74650002
-78.356598 -36.178795 -0.634
-78.220993 -36.045998 -0.63674998
-78.1213 -35.939899 -0.63839996
-77.961746 -35.761497 -0.58724999
-77.859497 -35.64875 -0.59350002
-77.717751 -35.513748 -0.60249996
-77.559792 -35.356571 -0.61921424
-77.478996 -35.277 -0.69599998
-77.331001 -35.141834 -0.65100002
-77.204498 -35.016331 -0.64766669
-77.074265 -34.874733 -0.61760002
-76.871254 -34.644001 -0.64491665
-75.625999 -33.38475 -0.60025001
-75.500999 -33.236 -0.528
-75.477165 -33.225834 -0.65249997
-73.378998 -30.96225 -0.60049999
-73.196999 -30.821625 -0.65700001
-73.082497 -30.7155 -0.59350002
-72.962334 -30.601 -0.6045
-72.818253 -30.451752 -0.59887499
-72.675003 -30.303623 -0.64450002
-72.555168 -30.187668 -0.64666671
-72.431717 -30.060001 -0.62492859
-72.288498 -29.905499 -0.60825002
-72.21067 -29.822001 -0.65408337
-72.113251 -29.716499 -0.60749996
-71.9328 -29.5434 -0.60790002
-71.826096 -29.435001 -0.62870002
-71.705872 -29.310373 -0.63475001
-71.590195 -29.181499 -0.63020003
-78.828629 -36.6735 -0.3335
-78.746506 -36.588753 -0.4005
-78.760498 -36.4585 -0.3105
-78.695374 -36.478752 -0.37900001
-78.468002 -36.255501 -0.2595
-78.371994 -36.173298 -0.3698
-78.211876 -36.00975 -0.369625
-78.089836 -35.883335 -0.34183335
-77.960747 -35.760498 -0.39249998
-77.869995 -35.653999 -0.34950003
-77.731499 -35.52 -0.40899998
-77.573196 -35.355797 -0.38280004
-77.395332 -35.171001 -0.39399996
-77.233002 -35.028999 -0.40649998
-77.095703 -34.8801 -0.3732
-76.899086 -34.666332 -0.41016665
-75.983002 -33.695 -0.329
-75.6306 -33.379906 -0.37169999
-75.50425 -33.237503 -0.35549998
-75.491997 -33.231998 -0.35499999
-73.352997 -30.951166 -0.35033333
-73.203003 -30.823999 -0.36899999
-73.065498 -30.708166 -0.36233333
-72.967873 -30.603249 -0.35887504
-72.818001 -30.451416 -0.35066667
-72.687332 -30.308832 -0.36383334
-72.556999 -30.179499 -0.36333334
-72.431602 -30.049799 -0.37910002
-72.299835 -29.909668 -0.34800002
-72.204498 -29.814499 -0.39225
-72.097374 -29.694 -0.34487501
-71.930252 -29.533249 -0.421875
-71.817993 -29.414249 -0.38150001
-71.728333 -29.319498 -0.36233333
-71.600395 -29.1854 -0.38219997
-71.428993 -29.021833 -0.35699999
-78.846603 -36.672504 -0.089600004
-78.773003 -36.464001 -0.098999999
-78.605499 -36.386375 -0.096500002
-78.335754 -36.130501 -0.096749999
-78.229004 -36.017998 -0.091250002
-78.067001 -35.847298 -0.092399999
-77.981995 -35.769997 -0.213
-77.8125 -35.585102 -0.12459999
-77.581078 -35.353413 -0.1425
-77.353897 -35.124702 -0.13789999
-77.25 -35.036499 -0.24450001
-77.121696 -34.878902 -0.1355
-76.903 -34.658249 -0.145
-75.9645 -33.687168 -0.15433334
-75.669746 -33.414997 -0.12091666
-75.51075 -33.24025 -0.081500001
-75.432617 -33.139874 -0.085500002
-73.334503 -31.003 -0.063999996
-73.317886 -30.962831 -0.13355556
-73.179832 -30.813833 -0.15583332
-73.086502 -30.716751 -0.095250003
-72.932503 -30.557001 -0.083000004
-72.822754 -30.446875 -0.116625
-72.702003 -30.314835 -0.070666663
-72.556625 -30.162001 -0.090000004
-72.422249 -30.022999 -0.088250004
-72.324501 -29.92 -0.10275
-72.226006 -29.823334 -0.14716667
-72.069 -29.6607 -0.13030002
-71.928001 -29.516832 -0.14866666
-71.836166 -29.421835 -0.15583333
-71.744507 -29.326 -0.10124999
-71.601494 -29.1742 -0.12100001
-71.411255 -29.014751 -0.097499996
-71.306831 -28.916498 -0.13333333
-71.187164 -28.8095 -0.12583333
-79.13578 -36.901001 0.14533333
-78.964005 -36.751499 0.13850001
-78.833672 -36.650002 0.082666665
-78.635254 -36.43375 0.097749993
-78.485504 -36.264 0.10275
-78.344872 -36.118999 0.152375
-78.2435 -36.024002 0.044
-78.102501 -35.873249 0.10225
-77.998001 -35.778 0.057
-77.8339 -35.594799 0.132
-77.624504 -35.3792 0.12909999
-77.334099 -35.102196 0.12859999
-77.1464 -34.9025 0.1283
-76.881836 -34.616444 0.14833336
-76.760002 -34.498001 0.028999999
-76.595329 -34.323082 0.14491667
-76.150665 -33.868671 0.12808333
-75.98275 -33.695 0.10625
-75.682205 -33.416 0.12890001
-75.524506 -33.246002 0.091000006
-75.409203 -33.089802 0.1244
-73.403374 -31.061001 0.1085
-73.31916 -30.935831 0.14933334
-73.191833 -30.818832 0.131
-73.059258 -30.673416 0.14733334
-72.903999 -30.51375 0.11650001
-72.8255 -30.428499 0.14516667
-72.716331 -30.320501 0.14033332
-72.572258 -30.168249 0.13866666
-72.445503 -30.032333 0.14033334
-72.3395 -29.92625 0.11525
-72.243996 -29.83025 0.098999992
-72.099503 -29.679377 0.093750007
-71.950752 -29.526251 0.096000001
-71.808754 -29.381376 0.11075
-71.624504 -29.189165 0.14408334
-71.421753 -29.019001 0.1185
-71.307121 -28.916876 0.13274999
-71.214836 -28.820999 0.14216666
-79.464172 -37.191334 0.3515
-79.207001 -37.005001 0.47299999
-79.158653 -36.891941 0.35248613
-78.817169 -36.621502 0.35266665
-78.626831 -36.409 0.36078572
-78.48925 -36.265499 0.29899999
-78.33683 -36.098751 0.36691669
-78.09449 -35.853333 0.35724998
-77.878403 -35.629299 0.37369999
-77.624756 -35.363163 0.38666669
-77.393364 -35.140358 0.38549998
-77.149078 -34.897415 0.37541667
-77.007004 -34.735001 0.41399997
-76.880798 -34.603397 0.38980001
-76.766998 -34.5 0.26499999
-76.616501 -34.332375 0.38937503
-76.392754 -34.102253 0.35091665
-76.255501 -33.946999 0.45550001
-76.172005 -33.871597 0.33069998
-76.010498 -33.707001 0.45450002
-75.996506 -33.700752 0.29449999
-75.616646 -33.330574 0.34628576
-75.430801 -33.112698 0.36770001
-75.267502 -32.937752 0.38624999
-75.195 -32.8675 0.34383333
-75.066254 -32.727249 0.3865
-74.932335 -32.584335 0.4383333
-73.818253 -31.447001 0.40074998
-73.713165 -31.343 0.35733333
-73.625336 -31.245001 0.35066667
-73.428833 -31.071833 0.352
-73.306999 -30.931 0.39925
-73.205002 -30.824375 0.3405
-73.078125 -30.681499 0.40537497
-72.918831 -30.519835 0.347
-72.846748 -30.43725 0.3935
-72.741745 -30.33075 0.40575001
-72.602249 -30.180624 0.40375
-72.46875 -30.042 0.405
-72.323662 -29.891417 0.35266665
-72.122002 -29.688751 0.35224998
-71.987175 -29.541 0.35899997
-71.850075 -29.402216 0.35735717
-71.707001 -29.250999 0.419
-71.647911 -29.198584 0.38216665
-71.448502 -29.029999 0.28049999
-71.301498 -28.914499 0.39425001
-71.187248 -28.80925 0.40074998
-79.665604 -37.380699 0.62949997
-79.402168 -37.129501 0.59700006
-79.194077 -36.887787 0.63957137
-78.828751 -36.626999 0.60049999
-78.717003 -36.505501 0.64300001
-78.815666 -36.416668 0.64749998
-78.685997 -36.44025 0.59749997
-78.365623 -36.112 0.59837502
-78.131416 -35.870247 0.65208334
-77.913406 -35.645203 0.63090003
-77.669128 -35.393501 0.59424996
-77.421631 -35.148499 0.60025001
-77.175003 -34.915504 0.63090003
-77.031006 -34.745247 0.5905
-76.878624 -34.584 0.59675002
-76.641579 -34.343582 0.65324998
-76.407906 -34.102398 0.62099999
-76.264999 -33.951168 0.63983333
-76.150253 -33.836502 0.59125
-76.049133 -33.709625 0.64287496
-75.957504 -33.626999 0.74000001
-75.634697 -33.330399 0.62779999
-75.4515 -33.121803 0.62650001
-75.289162 -32.94733 0.64966667
-75.189827 -32.846001 0.63566667
-75.081001 -32.733334 0.64383334
-74.925331 -32.570999 0.64958334
-74.773506 -32.411999 0.63866669
-74.149002 -31.768 0.64549994
-74.050003 -31.671001 0.60525
-73.940994 -31.561249 0.59799999
-73.835999 -31.454498 0.58325005
-73.716248 -31.329376 0.67462498
-73.634003 -31.248501 0.60675001
-73.442123 -31.07725 0.602
-73.290619 -30.908125 0.66749996
-73.216499 -30.809999 0.65249997
-73.085403 -30.677999 0.62709999
-72.940994 -30.528751 0.61325002
-72.803101 -30.381399 0.63800001
-72.617996 -30.18725 0.65091664
-72.482162 -30.047333 0.65116668
-72.346504 -29.9063 0.62769997
-72.208 -29.754999 0.61699998
-72.087494 -29.636833 0.63427776
-71.999001 -29.546 0.50199997
-71.866501 -29.410501 0.58660001
-71.718002 -29.255749 0.60749996
-71.594749 -29.1185 0.60987502
-71.315002 -28.900499 0.63016671
-71.205505 -28.816999 0.56200004
-79.755753 -37.4655 0.90225005
-79.674339 -37.380669 0.86433333
-79.508339 -37.211998 0.8416667
-79.379837 -37.085835 0.84200001
-79.195747 -36.892998 0.8955
-78.850662 -36.636837 0.85916662
-78.740669 -36.516167 0.8548333
-78.829247 -36.422752 0.89074999
-78.688332 -36.424667 0.85433334
-78.388168 -36.122585 0.85466665
-78.146378 -35.877251 0.89999998
-77.900307 -35.625 0.87309998
-77.679832 -35.398415 0.85516667
-77.512665 -35.223667 0.85283333
-77.393669 -35.101334 0.85316676
-77.261002 -34.98 0.89524996
-77.08358 -34.80225 0.85399991
-76.886665 -34.587666 0.85441661
-76.649803 -34.341198 0.89419997
-76.512001 -34.188 0.92949998
-76.432373 -34.119999 0.85237503
-76.282249 -33.958748 0.90750003
-76.165001 -33.843166 0.8585
-76.047501 -33.723251 0.90425003
-75.977753 -33.636002 0.90025002
-75.627495 -33.311085 0.88108331
-75.440292 -33.103401 0.86610001
-75.333 -32.966751 0.88849998
-75.18988 -32.82975 0.88137496
-75.07 -32.707001 0.89499998
-74.94075 -32.577999 0.90137494
-74.791756 -32.419746 0.91324997
-74.692253 -32.316498 0.90824997
-74.577499 -32.207001 0.91949999
-74.454498 -32.076 0.93625003
-74.317505 -31.939251 0.89037502
-74.180252 -31.798 0.84449995
-74.061836 -31.6765 0.84499997
-73.959496 -31.569502 0.85016662
-73.820702 -31.4242 0.87550002
-73.651505 -31.256001 0.89950001
-73.501999 -31.132 0.96399999
-73.456917 -31.083666 0.84833336
-73.288994 -30.8983 0.86689997
-73.169998 -30.751999 0.90149999
-73.076248 -30.648998 0.90550005
-72.960503 -30.536835 0.84366661
-72.835289 -30.4074 0.86680001
-72.628372 -30.191999 0.89812499
-72.495255 -30.05275 0.89775002
-72.352592 -29.903334 0.85833341
-72.213829 -29.757666 0.85383338
-72.067001 -29.604626 0.90724999
-71.875168 -29.408251 0.85108334
-71.735497 -29.263168 0.8506667
-71.603416 -29.122252 0.84408331
-71.344994 -28.902582 0.84641665
-79.492996 -37.271 1.143
-79.384094 -37.114197 1.1227
-79.181419 -36.875332 1.1159167
-78.824127 -36.589874 1.099875
-78.813995 -36.415749 1.0882499
-78.671837 -36.416832 1.1571666
-78.410164 -36.132751 1.1557499
-78.160995 -35.883999 1.0924166
-78.008247 -35.716751 1.20275
-77.910667 -35.625 1.0781667
-77.762497 -35.466 1.2474999
-77.6912 -35.397499 1.1349
-77.536171 -35.234333 1.1501666
-77.40625 -35.107376 1.1273749
-77.271751 -34.984749 1.08775
-77.109497 -34.807098 1.1285999
-76.918335 -34.601833 1.1487499
-76.662331 -34.342419 1.10875
-76.521004 -34.192333 1.1243334
-76.408669 -34.076504 1.1458334
-76.305664 -33.969501 1.1456667
-76.193672 -33.855835 1.15
-76.064743 -33.731003 1.09375
-75.980003 -33.636497 1.0880001
-75.665848 -33.342358 1.1307143
-75.510498 -33.174664 1.1483333
-75.401833 -33.059666 1.1280001
-75.36483 -32.980499 1.1478333
-75.18084 -32.809498 1.1411667
-75.014755 -32.6395 1.0969999
-74.903496 -32.532333 1.072
-74.805252 -32.425499 1.099
-74.7005 -32.320499 1.0935
-74.569664 -32.182163 1.1395
-74.4505 -32.065598 1.102
-74.28167 -31.890333 1.1528333
-74.168503 -31.776499 1.0955
-74.056671 -31.653 1.1471666
-73.978996 -31.577499 1.10325
-73.823898 -31.414001 1.1143
-73.672333 -31.264666 1.1511667
-73.515747 -31.137501 1.1025
-73.44767 -31.051001 1.1511667
-73.314751 -30.902502 1.1391667
-73.192665 -30.761168 1.1421667
-73.072128 -30.630875 1.17775
-72.981506 -30.54575 1.11075
-72.860817 -30.419687 1.1388751
-72.605125 -30.153936 1.135
-72.361702 -29.901402 1.1218001
-72.231331 -29.765167 1.1363333
-72.083168 -29.610998 1.1432499
-71.884415 -29.402418 1.1231667
-71.740997 -29.265499 1.0404999
-71.615623 -29.127125 1.096
-71.368752 -28.912125 1.0973749
-78.865334 -36.608917 1.33825
-78.778168 -36.399166 1.3446665
-78.669754 -36.416252 1.3842499
-78.526497 -36.21825 1.411
-78.3675 -36.080502 1.4137499
-78.251503 -35.957001 1.3857501
-78.153374 -35.864624 1.32925
-78.012497 -35.718498 1.39675
-77.893127 -35.593498 1.3748749
-77.780243 -35.473747 1.4115
-77.682495 -35.369499 1.4025
-77.551254 -35.240997 1.4025
-77.43425 -35.119751 1.4017501
-77.278168 -34.987835 1.34
-77.141296 -34.835102 1.3676
-77.004997 -34.674 1.446
-76.918671 -34.591167 1.3933333
-76.769836 -34.431667 1.3568335
-76.652252 -34.317749 1.388
-76.539406 -34.200802 1.3684
-76.427002 -34.084751 1.39025
-76.320747 -33.97625 1.3889999
-76.210999 -33.863998 1.3924999
-76.076752 -33.722 1.383375
-75.989998 -33.640835 1.3395
-75.677917 -33.343086 1.3921666
-75.530251 -33.182999 1.40825
-75.403877 -33.060623 1.3462501
-75.363876 -32.965874 1.431875
-75.185669 -32.800999 1.3890001
-75.036674 -32.649166 1.3598332
-74.936333 -32.546665 1.3476667
-74.816833 -32.430836 1.3598334
-74.721992 -32.329666 1.3495001
-74.584206 -32.184299 1.3703001
-74.417168 -32.015995 1.3491668
-74.304497 -31.900249 1.3885
-74.188667 -31.7855 1.3495001
-74.07 -31.654499 1.3705
-73.991997 -31.583 1.299
-73.847748 -31.424667 1.3615832
-73.702332 -31.277666 1.3753334
-73.058876 -30.609749 1.3816251
-72.857399 -30.404602 1.3552001
-72.114166 -29.634001 1.3688332
-71.639603 -29.143 1.3243001
-71.379402 -28.9107 1.3403
-78.807503 -36.546833 1.6440001
-78.680626 -36.363129 1.6351876
-78.593002 -36.25 1.52
-78.386505 -36.0895 1.5947499
-78.265503 -35.963997 1.5955
-78.155998 -35.849998 1.5875001
-78.037247 -35.7295 1.5925
-77.906754 -35.599751 1.60625
-77.797249 -35.48175 1.5905001
-77.693748 -35.374748 1.582
-77.564255 -35.247749 1.5817499
-77.442749 -35.124252 1.5799999
-77.293243 -34.994999 1.6064999
-77.170334 -34.838928 1.6310952
-77.012497 -34.678001 1.5365
-76.901001 -34.561001 1.559
-76.772507 -34.432499 1.5625
-76.668999 -34.325001 1.5645
-76.542 -34.202 1.543
-76.43 -34.084999 1.5369999
-76.336998 -33.983002 1.536
-76.226997 -33.870998 1.538
-76.055 -33.697998 1.526
-75.696304 -33.357399 1.6042999
-75.437981 -33.044193 1.6512222
-75.260002 -32.875999 1.506
-75.164001 -32.77 1.503
-75.051003 -32.654999 1.511
-74.945 -32.549999 1.518
-74.838997 -32.439999 1.513
-74.732002 -32.334 1.52
-74.642998 -32.235001 1.516
-77.293999 -34.994999 1.755
-77.180252 -34.831001 1.8994375
-75.577667 -33.109417 1.8590001
-74.950996 -32.554001 1.976
-75.152 -32.333 1.9529999
-74.842003 -32.442001 1.967
-74.737999 -32.337002 1.974
-75.038002 -32.215 1.944
-74.889496 -32.057999 1.9325
-74.063499 -31.6455 1.972
-73.852005 -31.431999 1.951
-73.689255 -31.30275 1.9797499
-78.446999 -36.380001 2.24
-78.089996 -36.016998 2.2290001
-78.152 -35.879997 2.1684999
-78.359001 -35.642998 2.0625
-78.033997 -35.729 2.1470001
-77.928001 -35.610001 2.1300001
-77.681 -35.599751 2.2150002
-78.160004 -35.449001 2.059
-77.888504 -35.393501 2.0900002
-77.598 -35.395 2.141
-77.455505 -35.295998 2.1589999
-77.57 -35.25 2.1029999
-77.203003 -35.0835 2.19525
-77.257004 -34.914001 2.0569999
-77.111206 -34.865604 2.1209002
-76.931503 -34.831253 2.2037499
-75.955498 -33.814003 2.1370001
-76.059998 -33.7005 2.0495
-75.863167 -33.646835 2.1359999
-75.730247 -33.583 2.1869998
-75.764503 -33.412003 2.0469999
-75.617821 -33.40588 2.1296875
-75.403 -33.252499 2.1515
-75.552002 -33.192501 2.0415001
-75.356331 -33.128166 2.1355
-75.183502 -33.030998 2.1465001
-75.30233 -32.933666 2.0326669
-75.105331 -32.868 2.1333332
-74.969498 -32.807499 2.142
-75.045998 -32.653 2.026
-73.879875 -31.685875 2.1059999
-73.73175 -31.53525 2.10075
-73.581841 -31.377335 2.1096666
-73.38575 -31.188625 2.1122499
-73.147835 -31.022167 2.1122501
-78.010498 -35.916496 2.39675
-77.896744 -35.812 2.328625
-77.77475 -35.674999 2.4000001
-77.65033 -35.553165 2.3546667
-77.527168 -35.426498 2.3578331
-77.400505 -35.300495 2.3393333
-77.315666 -35.202999 2.3893335
-77.1875 -35.076752 2.40275
-77.061005 -34.951 2.3994999
-76.964996 -34.846249 2.4112499
-76.847496 -34.729336 2.359
-76.697205 -34.571301 2.3805001
-76.529251 -34.393753 2.4000001
-76.426376 -34.29525 2.3209999
-76.297508 -34.159168 2.345
-76.182671 -34.041332 2.352
-76.071999 -33.926167 2.3428333
-75.9795 -33.824501 2.3603332
-75.821999 -33.664101 2.3848
-75.604248 -33.439629 2.4028749
-75.42617 -33.262669 2.3538332
-75.320168 -33.156002 2.3560002
-75.210167 -33.0425 2.3486667
-75.067162 -32.892166 2.4236667
-74.986832 -32.815334 2.3331668
-74.835335 -32.658665 2.35675
-74.626251 -32.441498 2.3891249
-74.464165 -32.277832 2.3548334
-74.320625 -32.126251 2.3875
-74.114746 -31.915375 2.402
-73.958496 -31.751999 2.4495001
-73.860832 -31.658165 2.3475831
-73.744995 -31.54125 2.3109999
-73.576797 -31.369099 2.3677998
-73.369255 -31.16675 2.430125
-73.179665 -31.055666 2.3096666
-72.851944 -30.828062 2.357625
-72.263504 -30.194 2.4689999
-72.02433 -29.966333 2.3618333
-71.8965 -29.8335 2.4112501
-71.677872 -29.610624 2.382375
-71.563667 -29.489832 2.3598335
-71.416748 -29.337502 2.4086249
-71.271828 -29.1905 2.3630002
-71.178337 -29.094168 2.3603334
-78.271744 -36.165501 2.585
-78.157661 -36.048672 2.6513333
-78.047333 -35.933666 2.6533334
-77.913002 -35.802376 2.6287498
-77.805 -35.688999 2.6456668
-77.696999 -35.574665 2.615
-77.571831 -35.446835 2.6568334
-77.445251 -35.321251 2.6087499
-77.35067 -35.219166 2.6476667
-77.222 -35.092167 2.6456666
-77.076622 -34.942501 2.655
-76.991745 -34.858749 2.589
-76.826752 -34.686749 2.6040001
-76.67025 -34.52375 2.6005001
-76.555756 -34.40575 2.59075
-76.440506 -34.283997 2.6085
-76.331253 -34.174248 2.6092501
-76.220505 -34.057999 2.6446667
-76.068405 -33.900501 2.6340001
-75.996506 -33.8325 2.5444999
-75.845009 -33.672569 2.6206429
-75.677498 -33.503502 2.5862501
-75.569832 -33.393833 2.6399999
-75.449669 -33.272663 2.6428335
-75.343002 -33.166252 2.6052499
-75.2285 -33.050751 2.6075001
-75.055801 -32.870502 2.6263998
-74.865746 -32.672371 2.6092501
-74.703667 -32.504665 2.6523333
-74.599998 -32.400082 2.6129167
-74.4935 -32.290501 2.625
-74.357399 -32.148396 2.6323001
-74.140083 -31.926086 2.6307499
-73.980659 -31.761168 2.6470001
-73.824409 -31.602667 2.6533334
-73.626297 -31.4025 2.6293001
-73.392784 -31.163858 2.6462142
-73.170998 -30.934 2.6819999
-72.861504 -30.822668 2.5590003
-72.675903 -30.627399 2.6196001
-72.528252 -30.482498 2.5975001
-72.398804 -30.327398 2.6257
-72.278 -30.199999 2.6332502
-72.157249 -30.08725 2.5862501
-72.050835 -29.977667 2.6438334
-71.918922 -29.839666 2.6349444
-71.838745 -29.719 2.6247501
-71.694748 -29.604 2.5892501
-71.572502 -29.493668 2.6296666
-71.423195 -29.333748 2.6434445
-71.345596 -29.151199 2.6385999
-71.196999 -29.073002 2.5813751
-71.252998 -28.951 2.7490001
-71.12394 -28.867126 2.5775001
-78.299835 -36.178669 2.8418334
-78.186996 -36.062248 2.9077501
-78.074005 -35.945999 2.90925
-77.946747 -35.817749 2.90675
-77.833832 -35.702168 2.8753331
-77.721336 -35.585835 2.8546665
-77.604492 -35.46125 2.9112501
-77.474663 -35.334831 2.8578331
-77.336174 -35.189831 2.9148333
-77.248505 -35.1045 2.835
-77.062607 -34.9151 2.8662999
-76.907005 -34.7565 2.8526669
-76.799004 -34.641499 2.8528335
-76.697838 -34.536499 2.8511667
-76.580833 -34.417168 2.8418334
-76.460838 -34.293499 2.8523333
-76.357841 -34.186497 2.8540001
-76.244247 -34.068752 2.9087501
-76.088104 -33.909401 2.8674998
-75.837746 -33.653252 2.8828335
-75.70163 -33.514 2.8692498
-75.591331 -33.4035 2.8526669
-75.466751 -33.280499 2.9025002
-75.322304 -33.131401 2.8660002
-75.238998 -33.056 2.75
-75.101105 -32.903099 2.8668001
-74.887169 -32.681747 2.8480835
-74.730247 -32.515999 2.9004998
-74.554588 -32.338833 2.8654168
-74.359299 -32.136898 2.8698001
-73.984001 -31.763 2.816
-73.839203 -31.603399 2.8766
-73.608002 -31.3685 2.88375
-73.498001 -31.252001 2.9960001
-73.354584 -31.110168 2.8677502
-73.140625 -30.891438 2.8700001
-72.931007 -30.6737 2.8910999
-72.660004 -30.538 2.8510001
-72.622002 -30.4065 2.8850999
-72.460167 -30.321501 2.8106668
-72.505997 -30.233 2.928
-72.335999 -30.101398 2.8892
-72.167 -30.091499 2.7505002
-72.258499 -29.924 2.9619999
-72.098915 -29.877081 2.8434999
-72.026833 -29.741165 2.8461666
-71.873001 -29.5928 2.8836999
-71.670425 -29.345572 2.9144285
-71.483498 -29.365 2.816
-71.592339 -29.224833 2.8738334
-71.405495 -29.110085 2.8192501
-71.365746 -28.910625 2.940125
-71.113373 -28.809376 2.808125
-71.291 -28.739 2.9909999
-78.540627 -36.406876 3.112
-78.441338 -36.310669 3.1453333
-78.308334 -36.182499 3.1343334
-78.195168 -36.066334 3.0833333
-78.129829 -35.927334 3.1499999
-77.955505 -35.82225 3.1030002
-78.037003 -35.73 3.2260001
-77.842751 -35.706749 3.0900002
-77.727837 -35.565166 3.1398332
-77.614746 -35.466248 3.0900002
-77.492996 -35.343502 3.1009998
-77.355202 -35.153999 3.1194999
-77.093872 -34.930378 3.1055834
-76.925003 -34.7645 3.079
-76.864502 -34.629002 3.1496668
-76.711998 -34.5425 3.1012499
-76.820335 -34.434338 3.2203333
-76.635666 -34.398167 3.1210001
-76.475006 -34.300003 3.0785
-76.588997 -34.201332 3.2226665
-76.411995 -34.107002 3.1472001
-76.244003 -34.069 3.0829999
-76.298004 -33.903 3.2014999
-76.131699 -33.864601 3.118
-76.054001 -33.669998 3.1805
-75.911621 -33.621124 3.1203749
-75.7005 -33.5135 3.0495
-75.829002 -33.420334 3.1949999
-75.598495 -33.406998 3.0444999
-75.491501 -33.291 3.0755
-75.584335 -33.162502 3.1896667
-75.389 -33.072876 3.1368749
-75.320999 -32.903999 3.1719999
-75.153328 -32.879333 3.0841665
-75.0755 -32.668503 3.1409998
-74.930336 -32.648666 3.066
-74.737 -32.519001 3.043
-74.861 -32.430668 3.1403332
-74.620331 -32.327168 3.0738335
-73.681664 -31.369667 3.0326669
-73.597244 -31.143749 3.1147499
-73.445328 -31.029665 3.1296666
-73.334 -30.881056 3.1079445
-73.274498 -30.7325 3.2385001
-73.108002 -30.631001 3.0717502
-72.994003 -30.552 3.017
-72.856834 -30.378166 3.0478334
-72.622002 -30.13525 3.0397501
-72.40625 -29.911125 3.0612502
-72.167 -29.572374 3.1261249
-72.176369 -29.340967 3.1789334
-71.889503 -29.385332 3.0424998
-71.637123 -29.122623 3.0295
-78.685699 -36.331802 3.381
-78.567001 -36.237999 3.299
-78.414001 -36.07967 3.29
-78.537003 -35.888 3.474
-78.426666 -35.871998 3.3981667
-78.1745 -35.8265 3.2955
-78.032997 -35.658001 3.332
-77.907661 -35.555332 3.2766666
-77.6315 -35.278 3.2655001
-75.760834 -33.350666 3.3336668
-75.470001 -33.027748 3.4077501
-75.361 -32.921665 3.3553333
-73.491501 -31.00975 3.4087501
-73.350502 -30.857498 3.3838336
-73.28125 -30.7355 3.4059999
-78.584999 -35.841999 3.5220001
-73.509003 -31.0175 3.744
-73.493744 -31.0105 3.5897501
-73.358643 -30.856855 3.6382141
-73.286995 -30.706167 3.6387498
-73.530998 -31.027 3.91275
-73.401001 -30.879 3.9013748
-73.297005 -30.704401 3.8694999
-72.632004 -29.629999 3.8210001
-72.383751 -29.6175 3.9000001
-72.716003 -29.489 3.773
-72.339996 -29.277 3.7590001
-72.108994 -29.409624 3.8380001
-71.918999 -29.281 3.7920001
-72.089996 -29.176001 3.8010001
-71.945999 -29.177 3.789
-73.538498 -31.0305 4.0939999
-73.428833 -30.891001 4.1442504
-73.291199 -30.714802 4.1388998
-72.456505 -29.827833 4.0986667
-72.459 -29.736 4.0079999
-71.386749 -28.80575 4.0976253
-71.265747 -28.668999 4.0927501
-75.281998 -32.699001 4.4530001
-75.171997 -32.585999 4.4390001
-75.052002 -32.474998 4.4419999
-74.8955 -32.314003 4.4165001
-74.640503 -32.080002 4.434
-74.446503 -31.869999 4.4125004
-74.282997 -31.709 4.4089999
-74.105003 -31.5415 4.434
-73.950005 -31.384666 4.4266667
-73.768997 -31.217499 4.4385004
-73.619377 -31.080126 4.3886247
-73.44725 -30.899126 4.4057503
-73.298126 -30.711876 4.35075
-73.125671 -30.572668 4.4181666
-73.042496 -30.424749 4.3179998
-72.910751 -30.3405 4.4067502
-72.767502 -30.196499 4.3970003
-72.639252 -30.067125 4.3956251
-72.582001 -29.951666 4.3140001
-72.442749 -29.852751 4.39325
-72.294334 -29.709999 4.4126668
-72.159996 -29.578602 4.4345999
-72.056747 -29.440502 4.3309999
-71.910744 -29.322168 4.3930836
-71.829498 -29.186501 4.2880001
-71.650902 -29.0919 4.3891001
-71.58667 -28.972666 4.3330002
-71.404922 -28.825644 4.3740001
-71.288506 -28.678503 4.3546667
-71.140999 -28.593416 4.4176664
-75.404495 -32.908752 4.5764999
-75.143997 -32.85675 4.6767497
-75.265999 -32.75 4.6139998
-75.105995 -32.608398 4.5748
-74.928123 -32.636124 4.688375
-74.848 -32.423801 4.6215005
-74.6175 -32.31625 4.6665001
-74.673248 -32.157249 4.54425
-74.415749 -32.107502 4.6940002
-74.341927 -31.896877 4.5891876
-74.145996 -31.8335 4.6564999
-74.130249 -31.658127 4.5699997
-73.891754 -31.574001 4.6364999
-74.009003 -31.471001 4.5349998
-73.858002 -31.314499 4.5374999
-73.679398 -31.3543 4.6431999
-73.607254 -31.164501 4.5688748
-73.385498 -31.055124 4.6242499
-73.507004 -30.954 4.5409999
-73.328247 -30.881001 4.6412497
-73.179703 -30.8414 4.6429
-73.128601 -30.662302 4.5675001
-72.943169 -30.594999 4.6628337
-73.010002 -30.445 4.5250001
-72.828201 -30.436901 4.6303
-72.686096 -30.334698 4.6220999
-72.819 -30.247 4.5100002
-72.578499 -30.171375 4.5985003
-72.436745 -30.074125 4.6573749
-72.364708 -29.931499 4.5935712
-72.173004 -29.803249 4.6272497
-72.071251 -29.701 4.6209998
-71.966003 -29.595249 4.5992503
-71.811996 -29.436499 4.6135001
-71.68 -29.301001 4.5875001
-71.566833 -29.176834 4.6340003
-71.434753 -29.055624 4.5897503
-71.350502 -28.878399 4.6626997
-71.20266 -28.817499 4.6059999
-71.320496 -28.6915 4.7425003
-71.084396 -28.6432 4.6307001
-75.157501 -32.862499 4.7934999
-75.070999 -32.627331 4.8699999
-74.890999 -32.588001 4.8200002
-74.870995 -32.417332 4.8666663
-74.637001 -32.325001 4.783
-74.697998 -32.178333 4.8846669
-74.441498 -32.0895 4.8120003
-74.552498 -31.9165 4.9084997
-74.377747 -31.841002 4.8892498
-74.173004 -31.845501 4.7709999
-74.125999 -31.661169 4.8253331
-73.908752 -31.581501 4.7507501
-74.022003 -31.476 4.8759999
-73.852997 -31.328251 4.84725
-73.748001 -31.419001 4.7550001
-73.630165 -31.149332 4.8158336
-73.399994 -31.061001 4.7509999
-73.514252 -30.957001 4.9052501
-73.44725 -30.871 4.9012499
-73.318336 -30.731333 4.9228334
-73.128876 -30.61525 4.8077502
-73.010002 -30.445 4.803
-72.914337 -30.361 4.8313336
-72.820496 -30.247499 4.8129997
-72.689667 -30.115 4.8080001
-72.535004 -29.952 4.7870002
-72.438332 -29.873001 4.817667
-72.328003 -29.743999 4.7865
-72.174004 -29.591249 4.789
-72.019501 -29.439999 4.7904997
-71.909996 -29.317331 4.7833333
-71.688004 -29.10125 4.7722497
-71.542 -28.9555 4.7714996
-71.402756 -28.785999 4.9072504
-73.411247 -30.823584 5.1378331
-73.344948 -30.680056 5.1398335
