# .PCD v0.7 - Point Cloud Data file format
VERSION 0.7
FIELDS x y z
SIZE 4 4 4
TYPE F F F
COUNT 1 1 1
WIDTH 1631
HEIGHT 1
VIEWPOINT -18.2321 96.2205 -1.35163 -0.354149 -0.00701479 0.0211809 0.934923
POINTS 1631
DATA ascii
14.341475 68.100845 1.6279249
14.66115 68.120522 1.6235286
14.884675 68.131325 1.614675
14.238 68.106087 1.8405
14.408079 68.114624 1.87255
14.621858 68.125862 1.8599644
14.879114 68.136757 1.8724071
14.38855 68.12085 2.12375
14.63175 68.132797 2.098
14.885043 68.146751 2.1361666
14.143703 68.118355 2.3922143
14.383142 68.128746 2.3470252
14.604 68.140327 2.3487918
14.840688 68.153656 2.3648751
14.099463 68.121864 2.6162126
14.366735 68.138054 2.6226997
14.606418 68.15287 2.6414583
14.868837 68.166 2.6324062
14.102333 68.130913 2.8629582
14.340969 68.146461 2.8671875
14.608875 68.164497 2.8855624
14.843178 68.174934 2.8758216
15.155375 68.191292 2.883292
14.123584 68.142387 3.0874445
14.340386 68.156807 3.1203001
14.6127 68.1754 3.1343749
14.857585 68.189362 3.1392775
15.112855 68.199982 3.1255417
14.369781 68.16687 3.3620622
14.611513 68.184959 3.4008121
14.8744 68.199944 3.3868332
15.108704 68.211517 3.3640232
15.366295 68.225098 3.3972111
14.346251 68.174721 3.6295938
14.648378 68.194023 3.6024692
14.850465 68.208855 3.6228309
15.123425 68.22435 3.613575
15.372624 68.236382 3.6103084
15.607649 68.233627 3.6592667
15.5525 68.25 3.7395
16.616833 67.384354 3.8739998
16.233 67.718002 3.9860001
16.364187 67.606873 3.9523752
15.939 67.980003 3.9820001
16.190001 67.762001 3.997
14.375406 68.184647 3.8744357
14.609178 68.203743 3.8628926
14.878707 68.220764 3.8706563
15.133035 68.23307 3.8800359
15.366391 68.243736 3.8383501
15.6765 68.206711 3.8565102
15.794834 68.106163 3.9038749
15.466334 68.253998 3.9553335
15.54475 68.256584 3.8956666
16.606941 67.398323 4.1397262
16.233999 67.723755 4.1075001
16.365345 67.610649 4.1441789
16.142101 67.807045 4.1284666
14.383248 68.194908 4.1135921
14.617624 68.210999 4.1075001
14.883163 68.229271 4.1260071
15.14925 68.243088 4.1114583
15.324499 68.248253 4.0612502
15.670751 68.21788 4.0858126
15.796501 68.113213 4.14257
15.397183 68.254639 4.1246667
15.554833 68.259918 4.1186666
16.648115 67.36982 4.3709316
16.755667 67.277 4.4576669
16.242001 67.726921 4.3071671
16.363836 67.621338 4.3927183
15.970584 67.967247 4.3546662
16.103544 67.848785 4.3531456
14.367656 68.203049 4.3486567
14.619332 68.220039 4.3525834
14.856937 68.235657 4.3705626
15.083222 68.246391 4.3210001
15.650447 68.242462 4.3631349
15.830178 68.09407 4.3997855
15.163917 68.25338 4.3739166
15.377208 68.262375 4.3555837
15.529125 68.27037 4.3933749
16.637924 67.389198 4.632175
16.77025 67.272499 4.6110001
16.350716 67.641617 4.626102
16.527 67.5 4.737
15.974334 67.972282 4.6382222
16.0975 67.864677 4.6371593
14.379315 68.213318 4.6230078
14.641885 68.230988 4.6372914
14.87225 68.246246 4.6026249
15.833 68.096344 4.6364412
14.969139 68.251389 4.639667
15.121382 68.259163 4.6223688
15.379043 68.271797 4.6503334
15.593025 68.265343 4.613121
16.640392 67.396767 4.8707247
16.771666 67.28083 4.8543334
16.377165 67.627785 4.8938994
15.9875 67.968002 4.8845
16.11622 67.854752 4.8765836
14.354401 68.216782 4.8691001
14.668321 68.241112 4.8751669
15.843916 68.095451 4.8761115
14.908251 68.255203 4.8649497
15.144501 68.268066 4.8593435
15.380625 68.279938 4.8961878
15.592847 68.272736 4.8622642
16.641655 67.399437 5.1346455
16.772501 67.285995 5.1465001
16.355877 67.65062 5.1321697
16.52725 67.502251 5.2005
15.988167 67.972839 5.1294999
16.118849 67.858101 5.1276746
14.382035 68.225426 5.1211076
14.643697 68.242706 5.1398335
15.842478 68.101852 5.1297016
14.7485 68.250336 5.1458335
14.913528 68.257935 5.1412358
15.141624 68.271812 5.1305308
15.381625 68.286125 5.1420832
15.582771 68.287895 5.1377082
16.65251 67.398666 5.3787227
16.77475 67.296753 5.3792496
16.379789 67.635796 5.3709207
16.528 67.507751 5.3965001
15.989083 67.977997 5.4120836
16.128582 67.856316 5.3820701
14.35455 68.227051 5.3655186
14.609875 68.245186 5.3832498
15.742 68.201996 5.474
15.843161 68.106476 5.3760467
14.748751 68.253586 5.3910837
14.911312 68.262749 5.386313
15.114999 68.274925 5.373786
15.382689 68.292809 5.3882504
15.59409 68.288216 5.3671513
16.657169 67.400986 5.6299248
16.775 67.298164 5.6178336
16.394445 67.630638 5.6284442
16.528334 67.511505 5.6410003
15.990499 67.984497 5.62075
16.120213 67.869347 5.5819173
16.256601 67.751595 5.6580005
13.844771 68.204742 5.6196461
14.118167 68.222412 5.6488338
14.354856 68.235542 5.6206069
14.5782 68.249809 5.5432
15.728001 68.217171 5.6146669
15.849524 68.108513 5.6109381
14.67953 68.259514 5.6394076
14.902 68.271767 5.6347504
15.131165 68.285362 5.6401668
15.38177 68.299698 5.632823
15.606 68.293137 5.6375418
16.640657 67.421875 5.8676872
16.783499 67.298088 5.8979163
16.375 67.653496 5.8748336
16.529999 67.519249 5.8852501
15.991333 67.991165 5.8663335
16.10611 67.891144 5.8615646
16.261499 67.754623 5.9178753
13.878256 68.214844 5.8615751
14.119938 68.232498 5.8944378
14.35055 68.243347 5.8257494
15.726917 68.226166 5.8656116
15.850977 68.115463 5.8529
14.439334 68.255585 5.9160004
14.640656 68.266708 5.8757143
14.8775 68.283379 5.8829374
15.134315 68.300575 5.8811393
15.38575 68.310623 5.8814378
15.608226 68.310478 5.8759766
16.633625 67.434372 6.132719
16.759449 67.325325 6.0833502
16.402477 67.638878 6.1364765
16.530832 67.524498 6.1306667
15.992 67.996002 6.039
16.14175 67.871788 6.1214995
16.263 67.763123 6.1147499
13.604523 68.206696 6.0932531
13.880843 68.22641 6.1364689
14.111799 68.243149 6.1206503
15.724501 68.242249 6.105125
15.86005 68.123123 6.1107841
14.172 68.251007 6.2399998
14.341636 68.259544 6.1312084
14.629269 68.278496 6.1382751
14.878167 68.295364 6.1342664
15.121982 68.30909 6.1208754
15.389434 68.324547 6.1312752
15.605646 68.319847 6.1292605
16.635332 67.441719 6.3828692
16.757399 67.335556 6.3646336
16.394474 67.655701 6.3857784
16.532585 67.533752 6.3881664
16.12476 67.896301 6.3744998
16.264418 67.771004 6.3604164
13.36713 68.197601 6.3538513
13.617958 68.216957 6.3620834
13.854787 68.232887 6.3769999
14.072875 68.246498 6.3848753
15.72915 68.243408 6.3536506
15.862315 68.127525 6.3538423
14.1725 68.254379 6.3877497
14.36 68.267601 6.3708925
14.628249 68.284447 6.3881788
14.888011 68.301056 6.3667774
15.123357 68.316948 6.373229
15.388762 68.332993 6.3920503
15.591312 68.332565 6.3923125
16.66679 67.420082 6.6452498
16.7995 67.301819 6.6161251
16.402626 67.654854 6.6250505
16.553875 67.5205 6.6203747
16.136187 67.892128 6.6112185
16.265625 67.777504 6.6062498
13.121523 68.195007 6.6468215
13.369853 68.209702 6.6246481
13.619625 68.227814 6.6079369
13.870357 68.241753 6.6131072
15.746556 68.237 6.6492782
15.891467 68.110184 6.6326509
13.974 68.254745 6.7337503
14.141729 68.26062 6.6499271
14.370793 68.274261 6.6274862
14.642428 68.293053 6.6162496
14.849139 68.305725 6.5779305
15.151929 68.324875 6.6187358
15.392025 68.337814 6.6070623
15.592292 68.338623 6.6396255
16.673801 67.420349 6.88975
16.800543 67.30838 6.8610001
16.405458 67.656815 6.8706999
16.553583 67.521828 6.8652496
16.136709 67.896233 6.8571663
16.265835 67.779915 6.8520832
12.466175 68.161072 6.8884249
12.568375 68.167999 6.9078751
12.839715 68.183105 6.8742146
13.1079 68.202248 6.8812499
13.355001 68.219604 6.8734999
13.621167 68.238121 6.8540421
13.803833 68.246162 6.8130002
15.746751 68.24025 6.8961668
15.913625 68.095093 6.881391
13.892057 68.255989 6.9120378
14.11835 68.26786 6.9026604
14.356333 68.282608 6.8810668
14.623865 68.299553 6.8737416
14.883792 68.320129 6.8576665
15.127238 68.334114 6.874856
15.391834 68.349449 6.8684831
15.593313 68.346176 6.8872495
16.655846 67.442734 7.1361337
16.811201 67.306747 7.1342993
16.393299 67.671501 7.1286507
16.555 67.528503 7.1113749
16.135973 67.902779 7.119472
16.268057 67.78125 7.1443334
10.861 68.103355 7.1908574
11.065333 68.106667 7.2236657
11.597563 68.134865 7.1817498
11.861702 68.141678 7.1226192
12.026251 68.154831 7.1990833
12.489722 68.17778 7.1351666
12.594083 68.179749 7.1320839
12.86218 68.198715 7.1213574
13.119709 68.215416 7.136416
13.370222 68.231056 7.1389346
13.609189 68.244507 7.12959
15.747223 68.244781 7.1435561
15.909529 68.102081 7.1522608
13.67325 68.2575 7.2497501
13.858097 68.261459 7.1365795
14.131817 68.279312 7.1307001
14.385678 68.296791 7.1418924
14.633709 68.311668 7.1105003
14.87605 68.331703 7.1334
15.142166 68.34713 7.1149578
15.395186 68.362442 7.1193748
15.603371 68.351425 7.1181602
16.676352 67.43425 7.3612838
16.810719 67.315842 7.3675938
16.424807 67.652367 7.363472
16.556917 67.53833 7.3574166
16.144825 67.898834 7.3584385
16.286249 67.775757 7.3924999
10.648458 68.090828 7.3890557
10.884834 68.09951 7.3653541
11.147179 68.113541 7.3746066
11.378957 68.124168 7.3543334
11.631766 68.13726 7.3995337
11.869653 68.149651 7.3519859
12.081 68.162224 7.4005561
12.4965 68.186996 7.3299999
12.607119 68.192001 7.3547378
12.93325 68.215561 7.3436875
13.121062 68.224373 7.3824377
13.366347 68.239082 7.3853889
15.913543 68.106255 7.3953757
16.039 68.003998 7.4720001
12.508 68.250999 7.4109998
13.614359 68.257843 7.3948874
13.846833 68.273338 7.4027977
14.125738 68.291405 7.3796425
14.337464 68.305893 7.3826785
14.635221 68.321335 7.3580837
14.89562 68.339699 7.3811698
15.143195 68.354362 7.3626947
15.396501 68.370956 7.3672085
15.633 68.333542 7.375
16.448002 67.474998 7.7290001
16.630535 67.395744 7.6734581
16.805901 67.317444 7.5820999
16.154751 67.749001 7.7347498
16.372395 67.640404 7.6371365
16.542751 67.534378 7.6018753
10.5905 67.975754 7.6738749
10.8635 67.980392 7.6673889
11.11275 67.994507 7.6512499
11.364334 67.994667 7.6686668
11.528 67.995003 7.6669998
15.917399 67.952736 7.6962671
16.121552 67.866959 7.617836
16.272249 67.766876 7.5881252
10.630743 68.060509 7.5768137
10.866343 68.06572 7.5991983
11.116617 68.083855 7.6035414
11.375575 68.080826 7.6282754
11.627512 68.084526 7.6216621
11.857969 68.086166 7.6261482
12.123251 68.124748 7.6019168
12.621281 68.14267 7.6242189
12.933064 68.159996 7.6254377
13.125201 68.161888 7.6461344
13.369773 68.194916 7.6360836
13.630981 68.176979 7.6536112
13.872139 68.19561 7.6668053
14.1002 68.202309 7.6727996
14.366464 68.209572 7.7007141
14.592167 68.238091 7.6995006
14.877333 68.236832 7.6838331
15.100334 68.237167 7.6888332
15.367167 68.245003 7.6758332
15.674167 68.184837 7.6732497
15.863678 68.095612 7.6088018
16.039 68.002998 7.5219998
13.67175 68.252495 7.5439997
13.850095 68.263542 7.556622
14.141528 68.287361 7.5525556
14.353215 68.28167 7.5830717
14.645218 68.296364 7.59724
14.88825 68.317505 7.5957499
15.155781 68.314812 7.6284065
15.397027 68.321091 7.6423755
15.62401 68.305664 7.6065125
16.679417 67.408394 7.871778
16.812 67.304398 7.8949499
16.222 67.700996 7.7540002
16.404383 67.650162 7.8564296
16.556625 67.542999 7.8983755
16.130299 67.896889 7.8631415
16.279501 67.783173 7.8815002
11.130751 68.149429 7.866179
13.360555 68.241661 7.8173614
13.61675 68.223495 7.7607498
13.860001 68.242165 7.7634997
14.142334 68.240005 7.7519999
15.868264 68.125443 7.856298
16.032001 68.012001 7.909667
13.613438 68.301727 7.8998752
13.89065 68.29467 7.9238672
14.111622 68.305939 7.8833485
14.371701 68.320297 7.8790002
14.623688 68.332413 7.8715944
14.869749 68.347282 7.8568931
15.131376 68.363129 7.8543124
15.384063 68.384895 7.8972187
15.624515 68.337364 7.8692198
16.679901 67.455803 8.1243
16.81975 67.335152 8.1247711
16.398878 67.704613 8.1518469
16.569 67.554848 8.1537189
16.143936 67.9245 8.1286564
16.276611 67.809273 8.136055
10.897349 68.122803 8.1335506
11.0307 68.127121 8.0983505
15.891479 68.147018 8.1392946
16.020584 68.033577 8.1400003
13.857765 68.299278 8.1187496
14.132293 68.316582 8.1142502
14.393359 68.334335 8.12815
14.639857 68.351921 8.1226788
14.891376 68.368187 8.1096249
15.114459 68.384087 8.1219168
15.382345 68.39994 8.1233931
15.628751 68.362755 8.1026354
15.771625 68.25312 8.1907501
16.70285 67.449799 8.3785496
16.838667 67.327217 8.363452
16.432301 67.687798 8.3808994
16.563042 67.57151 8.3989716
16.117374 67.960121 8.3883753
16.303749 67.798645 8.3936672
10.642694 68.117409 8.3620558
10.87718 68.126755 8.3779001
11.034249 68.137917 8.3494167
15.898293 68.150024 8.3849382
16.022249 68.043755 8.3886242
11.179333 68.362495 8.3839159
13.485001 68.448242 8.3905001
13.609834 68.325005 8.3901281
13.853723 68.303368 8.3820829
14.133306 68.324554 8.3620548
14.374899 68.341995 8.3803997
14.641125 68.359314 8.3629684
14.892292 68.37487 8.3577919
15.14225 68.392105 8.3889637
15.353941 68.406387 8.3542995
15.636125 68.36631 8.3671255
15.772749 68.260872 8.3897495
11.851064 68.579071 8.3891106
12.0921 68.619041 8.3602495
12.337865 68.638 8.3675632
12.72075 68.623749 8.3812504
12.932918 68.691818 8.4078197
16.7041 67.457306 8.6353998
16.857695 67.32225 8.6338615
16.437626 67.691124 8.6035004
16.566969 67.578094 8.6359072
16.118334 67.967957 8.6364584
16.304972 67.806274 8.6413755
10.656751 68.122993 8.6268215
10.878149 68.131653 8.6357002
11.037149 68.144577 8.5997009
15.88436 68.172333 8.6343889
16.023333 68.050835 8.637166
11.17025 68.357666 8.6451674
13.485168 68.452332 8.6381674
13.626273 68.333122 8.6311102
13.85515 68.310898 8.5993986
14.13425 68.332039 8.6102076
14.385813 68.348129 8.6078749
14.629125 68.366379 8.635438
14.893375 68.383316 8.6068115
15.118157 68.396095 8.6291256
15.354598 68.412498 8.6108618
15.639535 68.373497 8.6188574
15.773917 68.267998 8.6389999
11.370316 68.577591 8.6202812
11.635978 68.594711 8.6176357
11.849138 68.579193 8.6361952
12.092733 68.627426 8.6324997
12.370463 68.652039 8.6247501
12.921333 68.685181 8.648222
13.118841 68.699104 8.6188755
13.347836 68.63089 8.6071663
16.69265 67.474648 8.8674488
16.859167 67.330414 8.8808336
16.438166 67.696083 8.8511667
16.590193 67.565407 8.8820715
16.129168 67.961998 8.8590841
16.304703 67.812988 8.892067
10.89775 68.137749 8.8735504
11.034749 68.150581 8.8644991
15.885334 68.178123 8.8830004
16.040966 68.042465 8.8889008
11.170876 68.36438 8.8916245
13.48625 68.461998 8.8867502
13.607917 68.345276 8.8788605
13.881542 68.321289 8.8626251
14.135195 68.339577 8.8583059
14.386916 68.356163 8.8563337
14.658427 68.380104 8.8766432
14.901241 68.39682 8.8777132
15.099223 68.407021 8.8664722
15.354889 68.422752 8.861722
15.640924 68.384125 8.86835
15.774876 68.274246 8.8883743
11.380271 68.591194 8.8866186
11.622982 68.610504 8.8448238
11.849117 68.595871 8.8858624
12.111649 68.637917 8.8813992
12.343145 68.656723 8.866396
12.919865 68.704102 8.8965416
13.106202 68.710945 8.849762
13.346918 68.64193 8.8616495
16.736851 67.443527 9.0924244
16.869219 67.332306 9.1291561
16.438917 67.702171 9.1481667
16.578375 67.579697 9.130249
16.176249 67.931999 9.1316004
16.302563 67.821381 9.1216068
10.643417 68.135803 9.1466112
10.87865 68.143051 9.1265001
11.03475 68.154129 9.1100006
15.886527 68.186646 9.1323595
16.046167 68.045616 9.1349449
11.170917 68.370331 9.1381674
13.487334 68.471001 9.1355009
13.620022 68.359703 9.1289549
13.882937 68.331436 9.1112499
14.136708 68.349419 9.1070833
14.388563 68.366684 9.1055622
14.630718 68.390282 9.1269684
14.852778 68.405998 9.1073341
15.092651 68.418953 9.1302509
15.3565 68.43325 9.1119585
15.647367 68.388931 9.1206589
15.786777 68.273224 9.1301107
11.369617 68.596497 9.1346331
11.6135 68.612999 9.1302996
11.849849 68.600296 9.1215715
12.10285 68.648628 9.1105328
12.369657 68.663689 9.1367188
12.917187 68.705688 9.1350632
13.112378 68.72332 9.1451883
13.376639 68.617302 9.1253195
13.2624 68.750793 9.1552
16.846907 67.359825 9.3756981
16.44075 67.712128 9.3968754
16.596891 67.5755 9.3752851
16.183937 67.936127 9.3865004
16.334133 67.80616 9.3901234
10.643834 68.143333 9.3926668
10.8985 68.150253 9.3653002
11.035 68.160332 9.355834
15.886959 68.192375 9.382
16.048168 68.057922 9.3849173
11.171125 68.375877 9.3851242
13.488 68.478256 9.3842506
13.609501 68.360115 9.375639
13.883876 68.338745 9.3596239
14.137584 68.357941 9.3561106
14.389709 68.375916 9.3549166
14.645167 68.398125 9.3839893
14.877107 68.413673 9.3406782
15.114 68.427795 9.3732004
15.357471 68.440338 9.361805
15.6487 68.390701 9.3632755
15.796 68.270248 9.3824997
11.363001 68.594734 9.36203
11.59495 68.622849 9.3718996
11.849906 68.599907 9.3685322
12.103374 68.644669 9.3667498
12.346917 68.667824 9.3841772
12.535666 68.692001 9.3753328
12.883657 68.71022 9.3649368
13.111439 68.729485 9.3947916
13.3375 68.664276 9.375844
16.883619 67.341545 9.6268959
16.442751 67.724419 9.6463337
16.582281 67.601311 9.6276875
16.185999 67.94767 9.6364594
16.326948 67.82473 9.6226435
10.643916 68.148361 9.6384716
10.888259 68.156639 9.642024
11.035416 68.168083 9.6513338
15.902125 68.189964 9.6331253
16.037958 68.071823 9.6574459
11.1786 68.398033 9.6195011
13.489001 68.486664 9.6335001
13.621225 68.380409 9.6177053
13.884749 68.346756 9.6083755
14.138209 68.364418 9.6050825
14.390375 68.382751 9.6039371
14.619113 68.401596 9.6390848
14.8692 68.420494 9.6342497
15.0949 68.436546 9.6305494
15.359627 68.453247 9.6127501
15.6511 68.404747 9.6185503
15.797501 68.28083 9.6341667
11.380967 68.604782 9.6169834
11.615299 68.632149 9.62745
11.853256 68.627159 9.6277494
12.122638 68.668839 9.633153
12.383059 68.687057 9.6212826
12.664375 68.665123 9.6405001
12.84551 68.715027 9.6236
13.104449 68.738792 9.6684999
13.387792 68.618233 9.6278334
13.172 68.750999 9.5394001
13.26725 68.756874 9.618125
16.861038 67.369293 9.886013
16.443626 67.730873 9.8951254
16.611935 67.584068 9.8690662
16.186937 67.954063 9.8858747
16.342064 67.819756 9.8738117
10.643958 68.153336 9.8847084
10.88925 68.163315 9.8983746
11.035749 68.175499 9.8985004
15.903375 68.198997 9.883625
16.039562 68.07962 9.8833752
11.1664 68.386101 9.8794003
13.49 68.494003 9.8705006
13.613424 68.371948 9.8663998
13.885917 68.355797 9.8580837
14.139862 68.376007 9.8548326
14.40475 68.394371 9.8657188
14.6272 68.409348 9.9050007
14.878358 68.426682 9.8544292
15.116251 68.444244 9.8737001
15.360447 68.46022 9.8632774
15.651526 68.409813 9.8579168
15.79875 68.287506 9.8839998
11.35275 68.609497 9.8822145
11.59625 68.641006 9.8695002
11.851665 68.61705 9.8689957
12.105541 68.664879 9.8653755
12.346583 68.684372 9.8691177
12.6912 68.637299 9.8593006
12.878524 68.720482 9.8734283
13.097 68.738747 9.8811665
13.350705 68.668839 9.8642759
13.16575 68.750999 9.9485006
13.26525 68.754257 9.9667501
16.44475 67.739166 10.144666
16.194334 67.954712 10.13475
16.325958 67.840607 10.104986
10.644744 68.159569 10.133078
10.8994 68.170654 10.124701
11.036334 68.182335 10.145416
15.926332 68.186859 10.158917
16.054394 68.074463 10.146964
11.1819 68.428101 10.1325
13.621658 68.393188 10.122159
13.887125 68.365875 10.107875
14.140583 68.383331 10.104667
14.392723 68.400444 10.10068
14.596957 68.413582 10.144209
14.836357 68.431068 10.124215
15.09635 68.449303 10.13105
15.361251 68.467049 10.114041
15.664594 68.409973 10.132646
15.823667 68.279045 10.138384
11.366722 68.626503 10.129556
11.616549 68.647995 10.125299
11.852435 68.625862 10.121069
12.120116 68.677414 10.108667
12.329694 68.681755 10.105847
12.666598 68.628998 10.10032
12.875301 68.729759 10.157199
13.064501 68.747498 10.148749
13.397925 68.619965 10.133333
13.141187 68.755371 10.123938
13.27025 68.758331 10.112167
16.459833 67.696915 10.425667
16.209625 67.954498 10.38425
16.352085 67.82737 10.345266
10.644742 68.169167 10.399258
10.8807 68.178146 10.3646
11.042806 68.193054 10.405389
15.939568 68.188194 10.367167
16.074917 68.069336 10.382583
11.169299 68.4105 10.382299
13.615049 68.387878 10.365576
13.887833 68.374084 10.357667
14.135695 68.39064 10.353054
14.358139 68.406387 10.355038
14.598688 68.424622 10.394938
14.864187 68.441902 10.367407
15.117701 68.457954 10.37525
15.362194 68.475304 10.365334
15.64166 68.435921 10.375398
15.833437 68.280373 10.384125
11.212 68.502998 10.416
11.353892 68.626289 10.38025
11.596049 68.648209 10.3666
11.850868 68.627586 10.365437
12.123703 68.687477 10.357445
12.296277 68.685707 10.348639
12.624417 68.658333 10.4145
12.862292 68.732086 10.394126
13.059251 68.746338 10.394459
13.38966 68.638527 10.370112
13.541 68.500999 10.451
13.133583 68.764 10.349667
13.264501 68.787682 10.344234
16.460835 67.437256 10.669334
16.438749 67.596664 10.599167
16.209875 67.959045 10.634084
10.631286 68.178574 10.620214
10.890958 68.188499 10.641126
11.03725 68.198082 10.640666
15.948418 68.192329 10.640583
16.078585 68.07692 10.633398
11.14175 68.362 10.61725
13.632334 68.398308 10.602083
13.889125 68.384003 10.608188
14.137788 68.399681 10.616055
14.394626 68.417435 10.604938
14.59979 68.43367 10.646167
14.853 68.450203 10.60575
15.098799 68.468201 10.634001
15.363544 68.484627 10.617
15.655787 68.434097 10.638138
15.834416 68.287628 10.635125
11.212499 68.51033 10.639667
11.376481 68.652214 10.639954
11.614932 68.657761 10.621568
11.85327 68.639656 10.623332
12.140855 68.691292 10.656177
12.326 68.703545 10.648708
12.620649 68.669098 10.62885
12.809541 68.741188 10.639778
13.405026 68.62413 10.621832
13.540501 68.502502 10.642001
12.968125 68.758499 10.602125
13.141014 68.777405 10.637208
13.271834 68.796417 10.630166
16.211 67.966446 10.884688
10.677786 68.186111 10.855893
10.880986 68.198082 10.88768
11.032028 68.204918 10.865806
15.94825 68.195618 10.891125
16.090332 68.069954 10.884209
11.142334 68.371162 10.866
13.634906 68.37616 10.863562
13.897179 68.390724 10.872393
14.127137 68.406647 10.849682
14.395417 68.425209 10.856209
14.600438 68.440002 10.897125
14.854056 68.459282 10.857138
15.120151 68.477051 10.87855
15.352032 68.49128 10.853126
15.699813 68.411308 10.885813
15.834562 68.292755 10.886375
11.214001 68.524002 10.8895
11.355142 68.642387 10.879822
11.624738 68.676895 10.868262
11.861884 68.643181 10.88596
12.097342 68.707153 10.868352
12.348655 68.720703 10.878916
12.617874 68.698296 10.864959
13.391113 68.654587 10.86766
13.54175 68.51075 10.875751
15.460721 68.502754 10.873057
15.567751 68.5065 10.886625
12.902 68.76416 10.883695
13.097194 68.7845 10.882278
13.273807 68.783333 10.8695
16.228374 67.960938 11.105187
16.407684 67.803688 11.127767
10.641261 68.19191 11.123965
10.863145 68.20005 11.122451
11.03825 68.214417 11.137584
15.94975 68.205994 11.143333
16.097685 68.078407 11.137853
11.143 68.378502 11.115251
13.655614 68.386795 11.131042
13.867303 68.399796 11.140104
14.144459 68.418373 11.107457
14.397688 68.439499 11.108562
14.612249 68.453896 11.1289
14.8555 68.469582 11.109208
15.13725 68.488853 11.121401
15.302626 68.497002 11.084001
15.693833 68.426666 11.135043
15.825821 68.310463 11.14
11.214667 68.533165 11.139999
11.380666 68.666946 11.13625
11.618951 68.681595 11.120151
11.863296 68.654106 11.122901
12.115491 68.699257 11.114158
12.375096 68.720253 11.118322
12.605264 68.694038 11.148487
12.76 68.741997 11.0435
13.413218 68.630943 11.108782
13.5415 68.515495 11.126166
15.390111 68.507072 11.148486
15.568833 68.513756 11.138916
12.865428 68.762611 11.14775
13.122632 68.790092 11.141265
13.26825 68.787125 11.121
16.245375 67.95475 11.38775
16.376005 67.842171 11.388691
10.47225 68.189499 11.38625
10.654425 68.196861 11.370066
10.864771 68.207687 11.39728
11.0385 68.221001 11.386124
15.955 68.213875 11.392
16.099167 68.084709 11.3885
11.142166 68.38166 11.363334
13.617537 68.396057 11.382298
13.861292 68.409019 11.370615
14.146084 68.429916 11.359417
14.399848 68.447456 11.357598
14.593451 68.461998 11.371799
14.856945 68.479691 11.361779
15.093401 68.493576 11.335017
15.691437 68.438438 11.386126
15.819036 68.327217 11.372892
11.21475 68.540756 11.38975
11.355965 68.659004 11.380321
11.636482 68.686005 11.374287
11.875037 68.652824 11.359219
12.109805 68.717285 11.363167
12.351928 68.730873 11.364573
12.605562 68.707565 11.401751
13.406313 68.648506 11.362468
13.540751 68.513748 11.37675
15.154374 68.503708 11.395042
15.366708 68.514503 11.361189
15.569875 68.52388 11.392
12.868822 68.773438 11.377865
13.14695 68.799751 11.378292
13.287945 68.793831 11.369278
16.246832 67.963921 11.640167
16.390305 67.839417 11.633439
10.472 68.195 11.634833
10.625485 68.201263 11.630114
10.891376 68.213371 11.609499
11.03875 68.228081 11.635583
15.954937 68.217003 11.61871
16.094185 68.096954 11.635481
11.143 68.390999 11.6135
13.666278 68.401573 11.628834
13.893187 68.420311 11.613125
14.146958 68.438591 11.611209
14.409849 68.458145 11.62685
14.604563 68.472061 11.603562
14.867437 68.490082 11.640864
15.035 68.496002 11.524
15.692542 68.447044 11.639083
15.836438 68.320625 11.632093
11.215667 68.55117 11.640332
11.385704 68.678192 11.621258
11.606114 68.694313 11.630886
11.840308 68.68261 11.6119
12.10035 68.719887 11.637907
12.361791 68.733711 11.600166
12.61395 68.702942 11.63265
13.414803 68.643715 11.628781
13.540833 68.519501 11.627167
14.983 68.500999 11.689
15.126218 68.50959 11.639033
15.369249 68.526192 11.633083
15.571416 68.53392 11.6455
12.46475 68.758499 11.74925
12.549 68.803001 11.536
12.858756 68.782471 11.629266
13.155075 68.797844 11.621354
13.279223 68.796227 11.651833
16.247749 67.972122 11.892
16.400002 67.841194 11.877973
10.4725 68.201668 11.866834
10.645864 68.211136 11.874021
10.892001 68.221954 11.859042
11.03875 68.234741 11.884501
15.952749 68.229996 11.900499
16.096649 68.103256 11.9027
11.143 68.397247 11.888374
13.637929 68.411179 11.877213
13.893498 68.427376 11.864499
14.134907 68.445465 11.850905
14.366542 68.463165 11.890125
14.604874 68.477623 11.855792
14.788 68.491806 11.873601
15.695104 68.452621 11.894041
15.820715 68.34272 11.878751
11.216249 68.558998 11.891749
11.38829 68.687569 11.878917
11.628194 68.700142 11.86107
11.85716 68.688606 11.860244
12.105908 68.735313 11.9026
12.332806 68.740387 11.788501
12.644 68.707985 11.873973
13.414037 68.648712 11.874713
13.539249 68.516754 11.87675
14.928167 68.505112 11.884933
15.105499 68.517799 11.866949
15.370667 68.536171 11.881874
15.59575 68.529503 11.90675
12.362917 68.758186 11.914351
12.563499 68.756752 11.86075
12.879936 68.795517 11.900467
13.265076 68.823578 11.8832
16.247999 67.97525 12.0435
16.365313 67.879639 12.134881
10.472667 68.210335 12.1325
10.646925 68.218796 12.128969
10.891376 68.224442 12.1075
11.038917 68.241753 12.134583
15.953375 68.235878 12.102625
16.114475 68.097305 12.148751
11.143 68.403244 12.11325
13.660438 68.418655 12.131876
13.885516 68.436096 12.135333
14.097563 68.451752 12.116062
14.362906 68.473816 12.141438
14.65075 68.491684 12.126429
15.707875 68.449165 12.098625
15.839107 68.335213 12.1185
11.216166 68.566002 12.142166
11.397346 68.693642 12.132218
11.591928 68.707474 12.139688
11.859455 68.696877 12.111094
12.10337 68.745117 12.136473
12.26125 68.744499 12.110125
12.655708 68.703079 12.105542
13.423179 68.64521 12.117714
13.541167 68.530167 12.130333
14.865499 68.509293 12.132403
15.126699 68.526955 12.123751
15.370492 68.543701 12.134398
15.588287 68.538918 12.13066
12.415375 68.762627 12.103437
12.5635 68.761627 12.112249
12.84647 68.797447 12.133886
13.294874 68.80513 12.159521
16.391813 67.86573 12.374756
10.4725 68.213501 12.38225
10.646162 68.222198 12.371037
10.891335 68.231255 12.357585
11.039249 68.247498 12.3345
15.954501 68.245583 12.35675
16.14464 68.079727 12.384055
11.117624 68.371437 12.381624
13.639178 68.427109 12.377965
13.9052 68.442749 12.378901
14.0985 68.460709 12.369042
14.338511 68.477516 12.379179
14.575375 68.494308 12.39375
15.715833 68.451996 12.354
15.855749 68.329697 12.37155
11.216249 68.572746 12.39325
11.377652 68.69416 12.377346
11.601184 68.71077 12.374317
11.856188 68.695534 12.371843
12.102834 68.745171 12.299999
12.652583 68.713005 12.356334
13.43865 68.6287 12.3784
13.54225 68.540253 12.38325
14.660417 68.503967 12.367473
14.860457 68.517921 12.362792
15.105133 68.533386 12.366984
15.367793 68.551086 12.389293
15.587201 68.544952 12.3741
12.131916 68.757195 12.404583
12.377625 68.773766 12.367984
12.608812 68.781372 12.382937
12.869965 68.80719 12.366847
13.315125 68.796875 12.386437
16.360682 67.899933 12.622613
10.4725 68.221169 12.6325
10.645484 68.23008 12.610534
10.891438 68.237434 12.607563
16.138472 68.092384 12.619251
11.081201 68.323105 12.62755
13.6515 68.435303 12.63586
13.895375 68.450623 12.609438
14.097667 68.469162 12.65007
14.362261 68.48851 12.632073
14.556999 68.496506 12.542
15.716688 68.459877 12.608375
15.899786 68.297798 12.592171
11.215667 68.574501 12.644168
11.386192 68.70034 12.617125
11.599202 68.713211 12.639
11.857249 68.707535 12.627465
12.061999 68.745758 12.54975
12.652875 68.719505 12.608875
13.449583 68.62262 12.63685
13.537833 68.55378 12.640721
14.481 68.505997 12.681
14.608188 68.507622 12.62275
14.862139 68.52636 12.636861
15.1185 68.544792 12.642834
15.361979 68.562073 12.630261
15.574124 68.558624 12.606563
12.137074 68.754623 12.637676
12.363953 68.780312 12.608322
12.55925 68.793365 12.641284
12.867686 68.816948 12.652584
13.310542 68.803352 12.638268
16.377201 67.896683 12.877451
16.541874 67.753754 12.895374
10.4725 68.227249 12.88225
10.645943 68.236237 12.859783
10.87625 68.245499 12.79425
16.115099 68.124496 12.865005
10.909083 68.252747 12.924251
11.10245 68.362251 12.87435
13.648834 68.447121 12.893001
13.896459 68.46064 12.850375
14.100562 68.480186 12.889063
14.303599 68.494049 12.8495
15.704778 68.482445 12.859333
15.866822 68.340858 12.850594
11.223917 68.576584 12.891916
11.381229 68.674294 12.870318
11.610462 68.70092 12.87813
11.867598 68.680428 12.858908
12.087677 68.717239 12.896417
12.33875 68.743355 12.919451
12.627809 68.710968 12.903547
12.751 68.733498 12.95075
13.434361 68.651375 12.889042
13.520778 68.559563 12.907333
14.425899 68.503342 12.864034
14.610694 68.516396 12.869111
14.863251 68.536163 12.891625
15.119875 68.556061 12.898188
15.35587 68.571541 12.878702
15.5801 68.563828 12.860374
12.387437 68.764374 12.784937
12.563601 68.753807 12.852401
12.892527 68.787834 12.863358
13.298556 68.791939 12.868222
16.357409 67.922089 13.135751
16.542749 67.760918 13.148417
10.4725 68.233665 13.133332
10.618251 68.243568 13.134356
16.126701 68.125168 13.111574
10.744751 68.251251 13.1635
10.890125 68.257835 13.147847
11.100451 68.330093 13.145213
13.633989 68.455086 13.132322
13.896571 68.473251 13.132278
14.122869 68.489822 13.118857
14.2535 68.495499 13.1045
15.835231 68.380119 13.141161
11.2055 68.522499 13.0355
11.368709 68.659317 13.156454
11.633704 68.668549 13.099667
11.889981 68.70826 13.136806
12.116019 68.701073 13.144649
12.382049 68.700432 13.151525
12.535999 68.698257 13.05375
12.855583 68.737793 13.101438
13.389785 68.676758 13.160904
13.5 68.6045 13.094
14.354535 68.50779 13.1435
14.596316 68.523247 13.125216
14.865129 68.545639 13.142139
15.120915 68.564651 13.145222
15.342083 68.577827 13.103457
15.586229 68.567566 13.107625
12.1835 68.750999 13.0305
12.343729 68.759605 13.118771
12.611687 68.777061 13.148561
12.886779 68.783249 13.169194
13.280167 68.803169 13.145749
16.406292 67.891724 13.385981
16.543877 67.769379 13.402625
10.473 68.244751 13.38475
10.59725 68.247375 13.347
16.112577 68.145538 13.357986
16.254128 68.023628 13.4135
10.685701 68.25425 13.397749
10.893187 68.265816 13.387063
11.158766 68.351707 13.391751
13.462917 68.463425 13.386833
13.660524 68.463974 13.378407
13.897396 68.486 13.387793
14.102501 68.496246 13.35575
15.88025 68.350334 13.369896
11.37284 68.630363 13.354424
11.636008 68.695587 13.359348
11.862482 68.697403 13.408028
12.205585 68.737335 13.331166
12.31985 68.704254 13.3961
13.364351 68.638268 13.388193
13.981 68.5 13.409
14.135918 68.502937 13.368999
14.370143 68.517181 13.375786
14.6231 68.536888 13.35685
14.865791 68.556755 13.393626
15.143651 68.572044 13.368617
15.354305 68.588898 13.381832
15.580367 68.582375 13.347269
12.128188 68.756752 13.418938
12.441125 68.76194 13.341562
12.657676 68.789589 13.36587
12.886698 68.788887 13.383137
13.126177 68.798004 13.371538
13.264667 68.771004 13.342667
16.395868 67.906982 13.627233
16.544376 67.774246 13.605375
16.090099 68.171196 13.640551
16.254128 68.027756 13.616501
10.473166 68.253334 13.636666
10.647178 68.260468 13.625464
10.893291 68.274879 13.639335
11.135299 68.290283 13.634274
11.319119 68.407692 13.658333
13.401431 68.464409 13.645015
13.6325 68.471458 13.618821
13.882434 68.49247 13.613617
15.880134 68.356628 13.622014
11.424721 68.579376 13.62386
11.595227 68.706306 13.631904
11.86225 68.715874 13.624926
12.116155 68.706909 13.657964
12.316139 68.713921 13.611333
12.594501 68.738167 13.596834
13.166249 68.735497 13.629001
13.321119 68.606789 13.611938
13.968445 68.502113 13.646445
14.103501 68.510704 13.640541
14.356334 68.5298 13.647454
14.612583 68.547203 13.636333
14.852464 68.565285 13.6195
15.141475 68.584099 13.624868
15.377792 68.599922 13.615666
15.601167 68.58271 13.639068
12.125834 68.765587 13.571334
12.46225 68.786247 13.618876
12.639229 68.780151 13.63702
12.875289 68.812019 13.617955
13.076749 68.800354 13.6216
16.417967 67.891251 13.870651
16.545101 67.782356 13.879751
16.122076 68.148918 13.861195
16.257086 68.030258 13.850445
10.465 68.259338 13.884666
10.646656 68.267624 13.870438
10.90695 68.287834 13.9037
11.138023 68.296631 13.891667
11.384979 68.354401 13.88527
11.554667 68.475006 13.971667
13.2075 68.467377 13.935125
13.350139 68.464928 13.863458
13.659969 68.48262 13.868812
13.863 68.497498 13.853168
15.863271 68.375793 13.864507
11.611445 68.6325 13.85775
11.872499 68.730736 13.881157
12.065125 68.693787 13.863667
12.408667 68.739418 13.757833
12.556084 68.740921 13.892458
12.95075 68.701004 13.9615
13.128683 68.624771 13.87406
13.912624 68.503693 13.898251
14.103375 68.515938 13.895312
14.357708 68.537331 13.898125
14.613125 68.555496 13.891937
14.880249 68.576782 13.868375
15.159467 68.596642 13.884409
15.377154 68.608521 13.866417
15.590236 68.593697 13.872437
12.162833 68.778214 13.899126
12.355275 68.786674 13.887825
12.644733 68.792953 13.85605
12.869602 68.801041 13.851176
13.05325 68.760002 13.77075
16.409676 67.907936 14.135225
16.54575 67.789505 14.114626
16.115812 68.16333 14.12717
16.255251 68.040001 14.101
10.465834 68.271667 14.088083
10.635416 68.279503 14.133718
10.907428 68.295166 14.142426
11.117361 68.304604 14.13474
11.388624 68.317184 14.107
11.613676 68.399559 14.138435
12.967 68.445 14.19
13.1585 68.457184 14.129001
13.405451 68.473007 14.12715
13.626608 68.489037 14.125
15.873738 68.37458 14.140084
11.6725 68.539001 14.0345
11.866605 68.641144 14.121439
12.67516 68.700378 14.19898
12.878326 68.620285 14.126275
13.05225 68.566498 14.05325
13.855792 68.506126 14.107917
14.10425 68.524376 14.100063
14.358208 68.544212 14.102959
14.623899 68.564651 14.1276
14.870095 68.585342 14.128751
15.123096 68.603539 14.14335
15.381153 68.619278 14.131097
15.60103 68.594162 14.129906
11.866 68.750336 14.049
12.606784 68.781487 14.073644
12.757334 68.789833 14.049667
16.394714 67.929367 14.380488
16.546083 67.797249 14.365832
16.128468 68.160667 14.377901
16.285812 68.024315 14.363501
10.464111 68.284111 14.346111
10.639626 68.292419 14.377418
10.835333 68.302933 14.366259
11.157072 68.318428 14.382035
11.389251 68.328209 14.361209
11.651715 68.343979 14.379048
11.893945 68.403793 14.389096
12.070556 68.401443 14.476555
12.873381 68.443291 14.366441
13.127858 68.458321 14.374822
13.3864 68.484543 14.3743
13.574249 68.496506 14.350166
15.875574 68.38089 14.396733
11.917473 68.537453 14.286835
12.611353 68.612617 14.336814
12.759666 68.579002 14.325667
13.670333 68.504761 14.361653
13.881619 68.520462 14.367274
14.105709 68.536499 14.35675
14.359992 68.554237 14.355038
14.6045 68.570541 14.374001
14.888959 68.593491 14.382217
15.121928 68.610573 14.379357
15.380812 68.62944 14.387249
15.641626 68.573395 14.370425
16.660082 67.633972 14.633735
16.420864 67.911057 14.637708
16.542067 67.798767 14.623367
16.099194 68.195114 14.643348
16.286667 68.032661 14.637
10.643128 68.304741 14.620697
10.896805 68.317375 14.643041
11.143167 68.328003 14.606792
11.38005 68.339882 14.628067
11.638969 68.354156 14.633157
11.887584 68.367905 14.646264
12.890014 68.452339 14.655389
13.144143 68.475143 14.622286
13.391 68.492874 14.603126
15.879934 68.383354 14.613559
13.457 68.503334 14.666334
13.632221 68.511139 14.610264
13.852082 68.527962 14.636001
14.106438 68.545876 14.613374
14.374155 68.568649 14.622714
14.616062 68.584251 14.611313
14.860687 68.601265 14.637375
15.147084 68.621956 14.631594
15.3825 68.640961 14.645249
15.635594 68.586288 14.604594
16.476 67.7295 14.7855
16.361061 67.892982 14.870545
16.153601 68.137711 14.907496
16.286625 68.036499 14.825001
16.521999 68.029999 14.957
10.653041 68.312996 14.890248
10.895625 68.325188 14.89525
11.143694 68.338226 14.861613
11.40115 68.353203 14.869499
11.639893 68.367249 14.881607
11.888875 68.38118 14.885313
12.133117 68.39344 14.865642
12.368407 68.414848 14.848407
12.653093 68.441933 14.870564
12.898687 68.468475 14.889126
13.146292 68.486328 14.863698
13.3635 68.495171 14.791667
15.867267 68.402878 14.862935
16.047001 68.250504 14.95575
13.416433 68.505783 14.88515
13.5914 68.519699 14.872149
13.868313 68.540558 14.869083
14.106513 68.557434 14.864888
14.350968 68.57634 14.85875
14.632991 68.59716 14.873027
14.872486 68.613365 14.892056
15.124499 68.633179 14.880857
15.384 68.653313 14.904375
15.636521 68.595268 14.85646
16.2085 67.977005 15.033
16.637114 67.977859 15.128834
16.885073 67.923912 15.092094
16.087851 68.132141 15.122904
16.380257 68.13546 15.136616
16.619934 68.038773 15.144551
16.792833 68.064171 15.171834
10.662407 68.324097 15.13175
10.886649 68.335648 15.128901
11.144334 68.349754 15.117126
11.3822 68.366348 15.129499
11.639203 68.38504 15.14662
11.875791 68.396828 15.107765
12.13829 68.41626 15.128433
12.403033 68.439468 15.140134
12.62878 68.456924 15.148021
12.875358 68.477951 15.139191
13.105473 68.49369 15.112278
15.871406 68.40316 15.139851
16.250999 68.266998 15.24325
13.209625 68.505249 15.124375
13.377227 68.514969 15.143203
13.601361 68.532951 15.147416
13.865062 68.5513 15.128469
14.110667 68.572258 15.135472
14.38112 68.592529 15.136372
14.620473 68.609665 15.134139
14.843779 68.624863 15.115905
15.121524 68.647408 15.11369
15.385749 68.665756 15.112751
15.631701 68.610542 15.135808
15.942333 68.212334 15.3065
16.398779 68.15564 15.376351
16.886185 68.097984 15.354177
10.636071 68.33596 15.379465
10.9073 68.350647 15.377851
11.144703 68.364227 15.349993
11.4037 68.383453 15.367651
11.618574 68.399193 15.388542
11.848119 68.414055 15.353964
12.14225 68.436378 15.387833
12.38475 68.452805 15.366117
12.644166 68.473083 15.387876
12.891125 68.493126 15.391874
13.021 68.499001 15.316
15.849975 68.380524 15.375578
16.157438 68.349312 15.383781
16.268833 68.270508 15.399417
12.972 68.502502 15.4475
13.149184 68.509293 15.364722
13.400374 68.528687 15.381687
13.605854 68.544746 15.399334
13.840857 68.560432 15.372071
14.109875 68.580566 15.387187
14.374102 68.600853 15.382213
14.620312 68.620689 15.386938
14.861768 68.63649 15.366988
15.145157 68.658546 15.369386
15.386459 68.674789 15.362876
15.655768 68.599876 15.362361
15.75 68.524338 15.368
16.082001 68.513 15.445
10.6318 68.348747 15.5972
10.883222 68.363457 15.636085
11.147518 68.379532 15.634908
11.408695 68.39782 15.619152
11.633958 68.415276 15.639958
11.894375 68.432755 15.607876
12.158036 68.451424 15.615714
12.396083 68.468788 15.635417
12.654531 68.487251 15.631969
12.829334 68.496841 15.579166
15.69846 68.465752 15.664583
15.811 68.39917 15.563499
16.167536 68.392181 15.616893
12.880183 68.505051 15.636267
13.136312 68.525032 15.645094
13.381584 68.542946 15.640726
13.59525 68.556252 15.626249
13.870031 68.577248 15.637218
14.139229 68.596222 15.630626
14.36675 68.611305 15.600305
14.631201 68.631302 15.625349
14.850208 68.647713 15.611417
15.144313 68.669937 15.642073
15.388167 68.687874 15.632042
15.922625 68.647507 15.657875
16.078314 68.639313 15.588938
10.60325 68.362457 15.865916
10.835927 68.375534 15.868489
11.12775 68.394089 15.8728
11.347 68.408493 15.865499
11.660393 68.430565 15.878142
11.89714 68.447052 15.860055
12.132313 68.463531 15.866063
12.397563 68.484123 15.894187
12.571125 68.492943 15.848813
12.667351 68.506203 15.9235
12.899541 68.518791 15.8585
13.099751 68.534874 15.892187
13.352666 68.553619 15.896
13.640041 68.57428 15.875638
13.874549 68.590218 15.896737
14.09418 68.602936 15.873471
14.367473 68.623398 15.857158
14.619395 68.644745 15.890244
14.853949 68.659279 15.8445
15.121285 68.679932 15.874666
15.397476 68.692886 15.901906
15.89018 68.735107 15.85925
16.083305 68.687126 15.84975
10.604584 68.379524 16.149542
10.876219 68.395126 16.121876
11.079028 68.40696 16.107153
11.348834 68.425415 16.105459
11.631773 68.444382 16.11919
11.885267 68.462425 16.128084
12.146501 68.479958 16.112082
12.379444 68.494034 16.079721
12.461625 68.503372 16.119373
12.633774 68.51403 16.12212
12.889033 68.533516 16.142084
13.11115 68.548752 16.1294
13.353833 68.565544 16.103916
13.634015 68.585274 16.138237
13.860297 68.600006 16.108315
14.114249 68.618065 16.114685
14.381227 68.637451 16.125025
14.607865 68.65316 16.143024
14.861131 68.671989 16.127108
15.129869 68.691284 16.128387
15.387094 68.697868 16.09199
15.591792 68.711723 16.111303
10.650153 68.365349 16.41625
10.859157 68.389923 16.357353
11.138475 68.403908 16.384174
11.358278 68.426804 16.348389
11.642495 68.442162 16.367542
11.877145 68.456993 16.373056
12.140965 68.476654 16.360147
12.394249 68.481308 16.418062
12.6158 68.482803 16.403698
12.8915 68.492493 16.390499
13.015 68.499001 16.389
12.3585 68.507378 16.298792
12.634125 68.514412 16.39179
12.863488 68.535179 16.352024
13.11668 68.54174 16.383583
13.364376 68.562317 16.347843
13.619346 68.582085 16.354952
13.877901 68.593735 16.368408
14.103936 68.60746 16.377499
14.346555 68.621178 16.371841
14.646655 68.649216 16.361774
14.86913 68.660568 16.402468
15.155609 68.689102 16.360268
15.381642 68.700722 16.372616
15.619749 68.711357 16.396528
10.621046 68.144226 16.598249
10.875191 68.148811 16.590618
11.144935 68.18499 16.608528
11.37885 68.183624 16.59985
11.626778 68.187241 16.595518
11.865188 68.201096 16.606293
12.105354 68.208374 16.599396
12.3675 68.233147 16.5856
12.619562 68.242065 16.616749
10.642666 68.323997 16.510666
10.8707 68.315002 16.5732
11.142667 68.3825 16.523169
11.375634 68.312836 16.658932
11.64425 68.368622 16.566874
11.88707 68.376961 16.554569
12.1195 68.392174 16.596125
12.375458 68.368118 16.649406
12.633988 68.375427 16.586657
12.868225 68.324745 16.586184
13.13123 68.321609 16.612963
13.388046 68.346458 16.604729
13.613395 68.341301 16.604139
13.860178 68.365112 16.599747
14.142393 68.403282 16.633358
14.377908 68.392494 16.60026
14.629801 68.422501 16.625797
14.882716 68.403786 16.612818
15.09495 68.4282 16.608551
15.364459 68.438133 16.593708
15.639126 68.463959 16.603098
12.92 68.517502 16.504002
13.151166 68.515999 16.523333
13.40575 68.520248 16.531
13.59875 68.547997 16.519501
13.847833 68.552834 16.519999
14.150208 68.572548 16.513458
14.351376 68.570374 16.521
14.632401 68.5849 16.522301
14.8884 68.592606 16.521
15.134501 68.606499 16.554899
15.362472 68.578545 16.663834
15.61589 68.622833 16.564054
10.578625 68.233246 16.751375
10.423167 68.296997 16.919834
10.642688 68.288986 16.909687
10.862 68.290382 16.883595
11.105184 68.298531 16.861801
11.381084 68.3554 16.909647
11.6122 68.342705 16.853319
11.880375 68.362038 16.85675
12.075389 68.380615 16.890556
12.327868 68.401817 16.905666
12.632667 68.406685 16.878979
12.88526 68.412666 16.856813
13.125511 68.435738 16.855228
13.384277 68.443497 16.818501
13.613894 68.468575 16.859354
13.835034 68.462967 16.858034
14.109166 68.479034 16.851959
14.38375 68.491379 16.755249
11.6415 68.583 16.9445
12.802 68.689003 16.990999
13.177 68.577003 16.896999
13.4425 68.527 16.944
13.685 68.617996 16.983
13.858867 68.518639 16.926533
14.1465 68.554832 16.916998
14.379667 68.553436 16.895563
14.627323 68.53978 16.877022
14.895072 68.569496 16.846239
15.107178 68.573502 16.843052
15.370926 68.601639 16.91176
15.656803 68.605545 16.872152
15.886346 68.617119 16.833309
10.375346 68.274498 17.129333
10.619938 68.286858 17.127792
10.906566 68.323471 17.090366
11.14431 68.32869 17.135715
11.396243 68.356606 17.122595
11.602551 68.365135 17.14625
11.85675 68.392014 17.136784
12.127293 68.392899 17.124479
12.398071 68.405716 17.089216
12.647555 68.420715 17.148722
12.829478 68.436165 17.159119
13.141854 68.454262 17.118048
13.387983 68.469322 17.147299
13.605375 68.476006 17.172874
13.85775 68.48275 17.046751
14.033 68.4925 17.1185
11.041 68.544998 17.121
11.941 68.600998 17.202
12.404 68.698997 17.1
12.602 68.566498 17.053499
12.92 68.514999 17.007999
13.217 68.535004 17.139
13.341 68.524002 17.053001
13.639799 68.523399 17.123199
13.889778 68.536446 17.082335
14.09905 68.541016 17.166817
14.344071 68.548447 17.122036
14.617989 68.555862 17.15456
14.863159 68.575882 17.138517
15.128053 68.607399 17.154011
15.375761 68.606644 17.08
15.603587 68.624916 17.152386
15.868475 68.660408 17.130266
14.106501 68.781746 17.017
10.370296 68.300667 17.367517
10.659374 68.300377 17.343439
10.882833 68.340202 17.376816
11.153104 68.344406 17.360744
11.369767 68.365921 17.355167
11.622043 68.388962 17.425251
11.881555 68.378807 17.384916
12.159091 68.411369 17.375502
12.386285 68.417168 17.395172
12.630466 68.440651 17.35655
12.860751 68.451096 17.365269
13.105166 68.459755 17.389513
13.355817 68.472366 17.33585
13.622167 68.482918 17.3545
13.840333 68.494667 17.428335
14.032499 68.495499 17.3265
11.498 68.636002 17.457001
12.171 68.507004 17.27
12.740499 68.510002 17.337
12.964 68.515999 17.43
13.087 68.511497 17.358
13.414 68.519997 17.459
13.6356 68.535507 17.368
13.870875 68.532188 17.384272
14.139521 68.544128 17.373293
14.361428 68.569252 17.360073
14.617297 68.581024 17.411036
14.897631 68.599594 17.372908
15.123166 68.592995 17.363501
15.342809 68.620201 17.396149
15.598291 68.636543 17.332127
15.838594 68.671089 17.394821
13.143 68.802002 17.379
15.074 68.794998 17.468
10.412533 68.226791 17.740166
10.392286 68.312141 17.598114
10.604603 68.301544 17.626421
10.860594 68.313698 17.642361
11.129472 68.347755 17.616182
11.384311 68.356239 17.639889
11.618046 68.376144 17.62537
11.857021 68.378204 17.635283
12.109225 68.406143 17.622309
12.341877 68.407913 17.637985
12.601333 68.434052 17.631361
12.866 68.442604 17.65119
13.128784 68.441589 17.672251
13.337015 68.467354 17.667917
13.626846 68.47998 17.659857
13.806958 68.455338 17.746584
14.352 68.490494 17.748501
12.174 68.535004 17.586
12.269 68.508003 17.577
12.641 68.572334 17.610666
12.898001 68.567001 17.6185
13.131125 68.519379 17.602001
13.390799 68.540802 17.558701
13.615384 68.530518 17.602268
13.877 68.536713 17.602249
14.147282 68.553406 17.609146
14.366468 68.552032 17.650188
14.619274 68.568436 17.648052
14.848853 68.584969 17.638437
15.123696 68.593407 17.641136
15.360952 68.630051 17.573774
15.64684 68.659988 17.598297
15.872279 68.671837 17.639034
14.424 68.827003 17.6
14.62 68.781998 17.622999
15.015 68.771004 17.58
10.382375 68.17807 17.818813
10.6403 68.195595 17.809301
10.8779 68.189499 17.804399
11.121333 68.196663 17.810835
11.355 68.226006 17.820499
11.609668 68.23233 17.793333
11.774 68.241997 17.799999
10.321 68.360001 17.93
10.91875 68.265747 17.86875
11.12075 68.295044 17.844667
11.364167 68.302879 17.825499
11.6255 68.278175 17.825499
11.887071 68.295494 17.834356
12.132833 68.296082 17.811333
12.374687 68.333153 17.82003
12.5921 68.343498 17.80205
12.856861 68.358284 17.815931
13.120167 68.394165 17.831499
13.353749 68.378258 17.811666
13.627286 68.392784 17.821142
13.868217 68.427834 17.8218
14.145195 68.46389 17.811989
14.411888 68.454002 17.815279
14.6097 68.464401 17.821499
14.853374 68.461502 17.803625
15.129001 68.474495 17.825499
15.587 68.496506 17.8155
14.384501 68.522499 17.888
14.891062 68.549248 17.858999
15.146625 68.562927 17.862774
15.368279 68.541168 17.825277
15.629119 68.580482 17.850912
15.885751 68.583549 17.833729
16.109499 68.574532 17.855028
