# .PCD v0.7 - Point Cloud Data file format
VERSION 0.7
FIELDS x y z
SIZE 4 4 4
TYPE F F F
COUNT 1 1 1
WIDTH 104
HEIGHT 1
VIEWPOINT -18.2321 96.2205 -1.35163 -0.354149 -0.00701479 0.0211809 0.934923
POINTS 104
DATA ascii
-1.6518 -42.755199 2.7326
-1.8519317 -42.598019 2.6481111
-1.6774112 -42.635239 2.6463647
-1.3057288 -42.564857 2.7243156
-1.5879583 -42.462479 2.591625
-1.815684 -42.572796 2.8368082
-1.669377 -42.581875 2.8463273
-1.9025555 -42.492779 2.8660002
-1.5959167 -42.468666 2.8581667
-1.3789188 -42.376331 2.85883
-1.166887 -42.479313 2.8551025
-1.6646667 -42.752331 3.1756668
-1.838012 -42.605911 3.1433935
-1.6900429 -42.637325 3.1323743
-1.3018751 -42.565498 3.1716249
-1.1528541 -42.526005 3.1376877
-1.9004999 -42.485294 3.0817997
-1.5840555 -42.453499 3.1632223
-1.3941057 -42.399261 3.1320279
-1.1451759 -42.474339 3.1160624
-1.7916147 -42.542156 3.3468475
-1.679381 -42.540447 3.3583412
-1.0096111 -42.531391 3.3597782
-1.8947154 -42.472408 3.3493555
-1.5664124 -42.370487 3.3871706
-1.3921 -42.353069 3.3631029
-1.1666584 -42.46093 3.3611486
-1.8285466 -42.576763 3.6370115
-1.6635313 -42.640331 3.6156559
-1.3196 -42.519802 3.6134
-1.1041 -42.528168 3.6331837
-1.9022856 -42.453251 3.606482
-1.5799 -42.3866 3.6348801
-1.394352 -42.381084 3.6231797
-1.155418 -42.451496 3.6320822
-1.7872945 -42.534683 3.8936946
-1.6940833 -42.533337 3.8564999
-1.0080001 -42.509628 3.8986251
-1.8987147 -42.444309 3.8522303
-1.5786185 -42.373825 3.8714261
-1.405358 -42.321499 3.8628531
-1.1430025 -42.441761 3.8778493
-1.8146895 -42.575165 4.1020355
-1.672361 -42.63747 4.0868335
-1.3215001 -42.523499 4.079
-1.8865446 -42.453068 4.1021891
-1.3768772 -42.369976 4.1347756
-1.1245896 -42.433495 4.1259518
-1.5036249 -42.246124 4.1942921
-1.8116459 -42.538773 4.4280834
-1.686625 -42.553562 4.3933125
-1.9022547 -42.438625 4.3474269
-1.6038864 -42.412506 4.3645525
-1.3738049 -42.363083 4.425014
-1.503 -42.238834 4.3798332
-1.8065701 -42.578751 4.5936017
-1.6329584 -42.624039 4.5281668
-1.9096 -42.460293 4.6711383
-1.6053333 -42.414318 4.6134586
-1.367865 -42.344585 4.6222367
-1.5021667 -42.23106 4.6518331
-1.8254724 -42.577473 4.9386611
-1.651925 -42.567574 4.9470873
-1.275 -42.52 4.967
-1.893389 -42.389435 4.8295002
-1.6089916 -42.391991 4.8629336
-1.3702683 -42.357105 4.8928146
-1.1385553 -42.383041 4.8735318
-1.4481366 -42.243729 4.8035784
-1.7965 -42.553249 5.0085001
-1.7121251 -42.577248 5.0409999
-1.872407 -42.416252 5.0919104
-1.6176041 -42.377029 5.1107039
-1.3245344 -42.337933 5.1222401
-1.4490834 -42.239651 5.1499524
-1.837427 -42.557472 5.4130993
-1.6962918 -42.581543 5.3813753
-1.8955399 -42.403316 5.3609276
-1.6290247 -42.389252 5.3656087
-1.8620033 -42.399662 5.6475177
-1.6303231 -42.366848 5.6164074
-1.5418572 -42.235428 5.6432858
-1.8238083 -42.537842 5.8780336
-1.67302 -42.568108 5.8638306
-1.8916305 -42.411423 5.9051304
-1.6356521 -42.402122 5.8590741
-1.8940471 -42.357021 6.1379199
-1.6441023 -42.390713 6.1351852
-1.8257999 -42.534668 6.313889
-1.6937499 -42.576 6.3064995
-1.9026146 -42.384293 6.3906727
-1.6629581 -42.347332 6.3701968
-1.5551487 -42.205711 6.3510594
-1.46325 -42.119984 6.4100332
-1.8687385 -42.363358 6.6188741
-1.660725 -42.35257 6.6365738
-1.5519326 -42.192142 6.670939
-1.4816968 -42.117939 6.5926299
-1.702 -42.565166 6.7791667
-1.5609168 -42.182739 6.8960123
-1.4608632 -42.050392 6.8489165
-1.4809999 -42.266502 7.2115002
-1.5631063 -42.185425 7.0898604
-1.4514234 -42.067463 7.1419134
