# .PCD v0.7 - Point Cloud Data file format
VERSION 0.7
FIELDS x y z
SIZE 4 4 4
TYPE F F F
COUNT 1 1 1
WIDTH 84
HEIGHT 1
VIEWPOINT -18.2321 96.2205 -1.35163 -0.354149 -0.00701479 0.0211809 0.934923
POINTS 84
DATA ascii
-27.672703 66.625282 8.3715067
-27.561333 66.80883 8.3827505
-27.474625 66.935745 8.3885002
-27.347708 67.039879 8.3672094
-27.681084 66.633545 8.6447496
-27.564722 66.815338 8.6394997
-27.476 66.937416 8.6444168
-27.350208 67.042007 8.6300421
-27.682375 66.638435 8.8823128
-27.57086 66.820869 8.8937778
-27.47975 66.944504 8.9021244
-27.369249 67.064453 8.8945627
-27.686289 66.646004 9.1392918
-27.563696 66.84404 9.0929785
-27.476 66.958504 9.1009998
-27.344276 67.08107 9.1134262
-27.688126 66.653877 9.4006672
-27.56245 66.862373 9.3564634
-27.468332 66.988335 9.3629999
-27.3615 67.074883 9.376976
-27.682732 66.655731 9.649437
-27.569754 66.864067 9.6177225
-27.470001 66.98983 9.6208334
-27.354448 67.085068 9.6188784
-27.693451 66.666618 9.883667
-27.572638 66.856628 9.85324
-27.473999 66.998001 9.8880005
-27.352325 67.08152 9.8390942
-27.670521 66.671234 10.134501
-27.568653 66.875778 10.163239
-27.377832 67.080887 10.149278
-27.686668 66.680084 10.407889
-27.581039 66.859962 10.391819
-27.473 66.991997 10.273
-27.389126 67.095505 10.388687
-27.653418 66.685829 10.634999
-27.589323 66.858849 10.618464
-27.384251 67.086044 10.58725
-27.660889 66.694557 10.871388
-27.577406 66.870911 10.865344
-27.402704 67.091797 10.881352
-27.650084 66.696503 11.141251
-27.585363 66.867722 11.118056
-27.398407 67.104881 11.132656
-27.663065 66.698364 11.383734
-27.575174 66.8797 11.367778
-27.414179 67.089424 11.400785
-27.650501 66.734749 11.64525
-27.585625 66.885666 11.619625
-27.500999 67.049004 11.627
-27.377436 67.114983 11.596771
-27.70895 66.710999 11.87365
-27.575451 66.895195 11.866899
-27.50275 67.050499 11.9
-27.448002 67.09642 11.893417
-27.703167 66.715714 12.0825
-27.596375 66.879128 12.16625
-27.528999 67.039497 12.091
-27.685373 66.725334 12.35525
-27.590513 66.900558 12.359489
-27.507666 67.05883 12.338666
-27.425917 67.116081 12.397083
-27.706667 66.729836 12.590583
-27.592905 66.885948 12.647583
-27.510666 67.062996 12.6435
-27.736197 66.73217 12.854028
-27.606749 66.853897 12.877179
-27.50975 67.057999 12.9035
-27.71773 66.744873 13.1595
-27.593294 66.875473 13.132812
-27.503 67.039001 13.056499
-27.346937 67.14222 13.124156
-27.607418 66.810455 13.382584
-27.471888 66.974831 13.358722
-27.357613 67.094131 13.367527
-27.431284 66.87542 13.649334
-27.299917 67.071495 13.623569
-27.125603 67.163559 13.617625
-27.347282 66.839592 13.862992
-27.182999 66.945335 13.944
-27.087 67.487999 13.805
-26.925335 67.285667 13.835667
-27.130266 66.868126 14.124553
-26.883402 66.887611 14.362244
