# .PCD v0.7 - Point Cloud Data file format
VERSION 0.7
FIELDS x y z
SIZE 4 4 4
TYPE F F F
COUNT 1 1 1
WIDTH 85
HEIGHT 1
VIEWPOINT -18.2321 96.2205 -1.35163 -0.354149 -0.00701479 0.0211809 0.934923
POINTS 85
DATA ascii
-10.036625 65.992874 -1.9282501
-9.9104452 65.995171 -1.9258333
-9.6695004 65.996506 -1.8905001
-10.022417 66.003334 -1.8076668
-9.8700838 66.011917 -1.82775
-9.631114 66.012367 -1.8741001
-10.0275 66.011871 -1.5903749
-9.8865414 66.016975 -1.6088126
-9.6637287 66.024902 -1.6394187
-10.028361 66.036507 -1.3603333
-9.8607006 66.037201 -1.3642
-9.6407909 66.047859 -1.3647939
-9.3613234 66.060768 -1.3632518
-10.010333 66.053665 -1.0890833
-9.8819399 66.113838 -1.1342399
-9.6231995 66.137093 -1.1511667
-10.014667 66.082001 -0.84500003
-9.8457022 66.158653 -0.87953573
-9.3862495 66.152496 -0.85424995
-10.016 66.089249 -0.61175001
-9.8710442 66.162544 -0.63267493
-9.5737391 66.190926 -0.6420536
-9.4108725 66.175102 -0.60467225
-10.017167 66.10183 -0.40199998
-9.855916 66.183113 -0.36381948
-9.6070738 66.201263 -0.35739815
-9.4152384 66.187477 -0.37144047
-10.019166 66.112999 -0.1455
-9.8548565 66.191818 -0.122375
-9.6116362 66.208694 -0.093527786
-9.3914881 66.18425 -0.15585716
-10.02075 66.124001 0.088249996
-9.9114161 66.190666 0.14991666
-9.6277924 66.217499 0.1271631
-9.3927631 66.194427 0.093600005
-10.022722 66.137779 0.36055556
-9.8434849 66.213242 0.37367445
-9.5866375 66.234123 0.38874999
-9.3922739 66.205421 0.35643336
-10.024167 66.149506 0.64816666
-9.8608704 66.2202 0.60285282
-9.636919 66.241837 0.62794882
-9.3773899 66.209991 0.64085186
-9.5414991 66.253998 0.66874999
-10.026167 66.161423 0.89375001
-9.9423504 66.205048 0.84974992
-9.6342506 66.245499 0.80362499
-9.343708 66.205215 0.91179168
-9.8149109 66.253525 0.90154469
-9.5658751 66.260872 0.87731254
-9.4493999 66.256302 0.8973
-10.02775 66.173752 1.11575
-9.9683962 66.202019 1.0792916
-9.8546009 66.263611 1.0967
-9.6398067 66.268936 1.1312687
-9.4510832 66.268501 1.1549166
-10.029667 66.182671 1.3495001
-9.9677753 66.210342 1.3871458
-9.8535986 66.276459 1.3563751
-9.6391926 66.28064 1.383007
-9.453125 66.283127 1.3886249
-10.043979 66.166191 1.6419168
-9.9651995 66.195595 1.6203001
-9.8464451 66.278168 1.6439446
-9.6139011 66.283066 1.6308733
-10.062933 66.200333 1.8853667
-9.9615173 66.213173 1.8645668
-9.8406668 66.275757 1.8778095
-9.6539383 66.288414 1.8723086
-10.057083 66.212746 2.1447499
-9.8880281 66.220695 2.0983055
-9.6091757 66.229813 2.124475
-9.8929577 66.404274 2.1673286
-9.6246662 66.32074 2.1024003
-10.053167 66.210503 2.3864999
-9.9321251 66.235252 2.3227501
-9.6668549 66.22644 2.3505001
-9.5833569 66.370346 2.376477
-9.5109997 66.510002 2.493
-9.670001 66.231003 2.5440001
-9.8018093 66.439453 2.6364763
-9.6464472 66.355728 2.6380076
-9.6460695 66.352188 2.8615415
-9.3439989 66.349876 2.8716252
-9.5428123 66.535004 2.8871875
