# .PCD v0.7 - Point Cloud Data file format
VERSION 0.7
FIELDS x y z
SIZE 4 4 4
TYPE F F F
COUNT 1 1 1
WIDTH 198
HEIGHT 1
VIEWPOINT -18.2321 96.2205 -1.35163 -0.354149 -0.00701479 0.0211809 0.934923
POINTS 198
DATA ascii
34.139309 -8.6482859 4.9097857
34.380291 -8.6206522 4.9115138
32.871956 -8.3488617 4.871417
33.12397 -8.3554163 4.8705831
33.338055 -8.3600836 4.8745832
33.637447 -8.3890276 4.8863888
33.873466 -8.3679991 4.8910003
34.098 -8.3752508 4.8956871
34.355202 -8.3520002 4.9004998
34.629749 -8.4182673 4.9087667
32.140976 -8.1460238 4.8587379
32.377735 -8.1051073 4.8582001
32.637623 -8.1020622 4.8603754
32.867134 -8.1212835 4.8635836
33.104904 -8.1358757 4.8641391
33.383442 -8.1159725 4.8651114
33.653336 -8.0996943 4.8688331
33.935188 -8.1177711 4.8775835
34.204796 -8.1251669 4.8878336
34.438084 -8.152916 4.8953338
34.666378 -8.1119404 4.8989644
34.893669 -8.1193171 4.8999662
30.906679 -7.8499303 4.8348331
31.133501 -7.8678541 4.8400416
31.401945 -7.8893332 4.8462224
31.60467 -7.8748002 4.846467
31.852503 -7.8817263 4.8468451
32.122967 -7.8799005 4.8473668
32.367001 -7.8809762 4.8499045
32.612251 -7.8800001 4.8518543
32.865238 -7.8930001 4.8548751
33.152302 -7.8618331 4.8578057
33.360344 -7.883214 4.85812
33.624336 -7.8614445 4.8596249
33.892918 -7.8903332 4.8680835
34.122623 -7.8535209 4.8762918
34.399776 -7.9154449 4.886889
34.610916 -7.894083 4.8889999
34.879711 -7.8479447 4.8871112
35.127415 -7.879354 4.8883543
35.372139 -7.8900995 4.8404436
29.885513 -7.6231112 4.8366809
30.100515 -7.6419997 4.8340278
30.339115 -7.6154451 4.8288474
30.647696 -7.6478767 4.82831
30.869452 -7.5756588 4.8213501
31.139854 -7.6285667 4.8227863
31.397964 -7.6179166 4.826786
31.654915 -7.6367779 4.834806
31.865183 -7.657083 4.8369837
32.144562 -7.6344585 4.8366461
32.387482 -7.6471 4.83845
32.578293 -7.6298957 4.8389168
32.861202 -7.5942874 4.8410749
33.124142 -7.6247854 4.8475356
33.376999 -7.5934167 4.8499999
33.665684 -7.6096334 4.8563337
33.941441 -7.650187 4.8670001
34.174377 -7.6463757 4.8743753
34.3703 -7.6050005 4.87395
34.627083 -7.606667 4.8756394
34.824791 -7.6463542 4.8776875
35.094231 -7.6109376 4.8737082
35.356419 -7.6421671 4.8760004
35.619347 -7.6418018 4.8288293
35.787277 -7.5201669 4.798111
30.117357 -7.3849616 4.8203444
30.352829 -7.3715997 4.8209057
30.649439 -7.390039 4.8208194
30.906464 -7.3556442 4.8148861
31.124626 -7.3474379 4.8121877
31.345278 -7.3848715 4.8125644
31.658545 -7.3578553 4.8156776
31.860353 -7.3830833 4.8224583
32.132023 -7.3744721 4.8263059
32.389107 -7.3376532 4.8230133
32.641949 -7.3902001 4.8259497
32.838558 -7.3540559 4.8272223
33.066063 -7.3315625 4.8309374
33.352333 -7.3552709 4.8414793
33.671917 -7.3766165 4.8545332
33.897438 -7.3727164 4.8611331
34.094269 -7.3751664 4.8638334
34.350945 -7.3930554 4.8648334
34.596783 -7.3773665 4.8649168
34.854431 -7.3541336 4.8604331
35.105335 -7.3782334 4.8621001
35.354874 -7.3728337 4.8625417
35.576935 -7.3753333 4.8646669
35.853191 -7.3822231 4.8361478
29.90867 -7.1255598 4.80969
30.096155 -7.1192942 4.8092203
30.376932 -7.1245751 4.813417
30.633038 -7.1406789 4.8128076
30.87035 -7.1066499 4.8098669
31.083576 -7.1305771 4.8094764
31.367279 -7.1147037 4.8037586
31.636374 -7.0999999 4.8012085
31.893835 -7.1432672 4.8086996
32.1292 -7.1085997 4.8131995
32.363804 -7.1288333 4.8144169
32.641754 -7.1124535 4.8134103
32.902878 -7.1655874 4.8188124
33.152916 -7.1026669 4.8234167
33.381248 -7.1015 4.835875
33.64764 -7.1228051 4.848917
33.891247 -7.1151109 4.8507495
34.151283 -7.1263576 4.8532615
34.383167 -7.145133 4.8536501
34.640522 -7.1236143 4.8499584
34.896538 -7.1299005 4.8479004
35.154602 -7.1388998 4.8494
35.387447 -7.1220555 4.8520002
35.597961 -7.1497498 4.8529167
35.877766 -7.1212502 4.856267
36.138515 -7.1413555 4.8229427
30.353956 -6.8727427 4.8034854
30.64274 -6.8704901 4.8037376
30.898569 -6.8647499 4.8020973
31.139156 -6.8436394 4.8007965
31.356915 -6.9089994 4.7994666
31.6325 -6.8924031 4.7965693
31.870876 -6.8518171 4.7950625
32.136681 -6.8671017 4.7988987
32.374996 -6.8528056 4.80125
32.643944 -6.8782501 4.80475
32.890251 -6.8558836 4.8083005
33.112648 -6.8900003 4.8170996
33.369396 -6.8635836 4.8321042
33.628773 -6.8895626 4.8407083
33.867134 -6.8893332 4.8421831
34.133858 -6.8765235 4.8408332
34.383949 -6.8763666 4.8380165
34.60635 -6.8533745 4.8352914
34.872681 -6.8802085 4.8349724
35.107418 -6.8650284 4.8350558
35.329472 -6.8629723 4.8373332
35.627949 -6.8865838 4.8416944
35.882221 -6.8648052 4.8435278
36.142769 -6.8646669 4.847867
30.606588 -6.639267 4.7947874
30.852842 -6.6401353 4.7953544
31.141638 -6.6179814 4.7930427
31.40185 -6.63235 4.79215
31.633867 -6.6350141 4.7913694
31.877005 -6.6344109 4.7901335
32.126686 -6.5950174 4.7871661
32.37513 -6.6438575 4.7910237
32.617001 -6.6380005 4.7947502
32.86182 -6.6019859 4.8047919
33.061337 -6.6587501 4.8140831
33.362 -6.6413894 4.8267498
33.622623 -6.6228752 4.828125
33.877174 -6.6368957 4.828979
34.146767 -6.6076002 4.8227668
34.389862 -6.6330552 4.8214169
34.59877 -6.6175833 4.8210206
34.881622 -6.6404762 4.8238568
35.131035 -6.6016335 4.8230333
35.390087 -6.627542 4.8244996
35.636627 -6.6455212 4.829854
35.864574 -6.5615749 4.8266497
36.110222 -6.6232777 4.831861
30.870527 -6.3925138 4.7851939
31.1415 -6.3936105 4.784667
31.39246 -6.3947496 4.7850418
31.636354 -6.358274 4.784821
31.872498 -6.3665605 4.7842569
32.096218 -6.3535252 4.783875
32.371777 -6.3792877 4.7838497
32.647373 -6.3653197 4.7923751
32.864918 -6.3711667 4.804667
33.137222 -6.3869863 4.813417
33.394875 -6.3675003 4.813889
33.640392 -6.3835697 4.8139725
33.893276 -6.3518753 4.8077359
34.100903 -6.3445001 4.8055501
34.378384 -6.3670473 4.8058333
34.588036 -6.3329 4.8054667
34.866314 -6.3690934 4.8094378
31.139496 -6.1449547 4.7758479
31.362375 -6.1336942 4.775847
31.611649 -6.1308498 4.7765999
31.855957 -6.1007361 4.777472
32.099461 -6.0912709 4.7784586
32.362396 -6.1344166 4.7824163
32.602417 -6.1125836 4.7889166
32.846218 -6.1302381 4.7982974
33.122635 -6.1581173 4.8026223
33.374645 -6.0985003 4.8009405
33.597641 -6.140667 4.8001113
34.143387 -6.1939445 4.796
34.410252 -6.1922503 4.7982497
31.342749 -5.8876309 4.766036
31.600155 -5.8790665 4.7673912
31.855429 -5.8629584 4.7684479
31.599731 -5.6304235 4.758357
31.875061 -5.6433878 4.7611122
