# .PCD v0.7 - Point Cloud Data file format
VERSION 0.7
FIELDS x y z
SIZE 4 4 4
TYPE F F F
COUNT 1 1 1
WIDTH 164
HEIGHT 1
VIEWPOINT -18.2321 96.2205 -1.35163 -0.354149 -0.00701479 0.0211809 0.934923
POINTS 164
DATA ascii
98.271286 -79.359138 4.6607141
98.303604 -79.104004 4.6346002
98.400497 -78.577255 4.6772499
98.413002 -78.382996 4.6773334
98.444504 -78.167 4.7294998
98.244247 -79.386246 4.8737502
98.260002 -79.321999 4.8390002
98.296127 -79.10675 4.8742499
98.328835 -78.865997 4.8551669
98.376106 -78.615997 4.864222
98.421402 -78.358994 4.8558998
98.465584 -78.128426 4.8823333
98.5 -78.044998 4.8979998
98.487 -77.891998 4.8629999
98.501999 -77.824493 4.9289999
98.237 -79.405998 5.0050001
98.319336 -79.331665 5.1436667
98.349495 -79.143501 5.1168332
98.389305 -78.871681 5.1358123
98.432289 -78.627426 5.1241431
98.451996 -78.394501 5.0500002
98.518501 -78.428505 5.166667
98.472 -78.2435 5.0445004
98.578499 -78.162994 5.1704998
98.555191 -77.8862 5.1377997
98.332161 -79.341835 5.3346667
98.396881 -79.115372 5.3873749
98.511002 -79.181999 5.487
98.4245 -78.885498 5.3501244
98.546501 -78.864998 5.4860001
98.474251 -78.635506 5.3642497
98.575996 -78.550003 5.4419999
98.499001 -78.488998 5.3509998
98.58374 -78.378334 5.3769169
98.585251 -78.167625 5.3468752
98.642799 -77.864403 5.3467999
98.755997 -77.910004 5.4460001
98.575996 -79.005997 5.6539998
98.5812 -78.871002 5.6434002
98.607666 -78.648994 5.6193333
98.682007 -78.368744 5.6240001
98.708 -78.208748 5.6812501
98.583725 -78.87886 5.8634291
98.61367 -78.625916 5.8667502
98.655418 -78.352333 5.873333
98.699097 -78.120895 5.8874002
98.634003 -78.708 6.2150002
98.644661 -78.34333 6.1659999
98.702431 -78.107292 6.146214
98.598663 -78.828667 6.4319997
98.605759 -78.628754 6.401
98.62249 -78.377998 6.3647857
98.675499 -78.124123 6.397625
98.597748 -78.847504 6.5907497
98.623749 -78.614746 6.5410004
98.647667 -78.381752 6.6193333
98.681702 -78.1064 6.6429
98.582199 -78.847397 6.8781996
98.635201 -78.617599 6.8504
98.66684 -78.359749 6.8581672
98.696991 -78.140503 6.8397498
98.726242 -77.942749 6.86375
98.6008 -78.860306 7.0974998
98.647369 -78.604126 7.1103754
98.690498 -78.387497 7.0815001
98.705414 -78.129166 7.1115837
98.751999 -78.125999 7.1880002
98.728249 -77.915253 7.1001248
98.630997 -78.814003 7.3569999
98.635399 -78.639603 7.3945999
98.656906 -78.388603 7.4011002
98.716148 -78.099998 7.3659997
98.572502 -78.944 7.5515003
98.626999 -78.615753 7.62325
98.660805 -78.379997 7.6728005
98.718132 -78.115631 7.6426253
98.575691 -78.895126 7.8778749
98.617996 -78.636002 7.9475002
98.662804 -78.414505 7.8627996
98.710083 -78.131752 7.9057503
98.718002 -77.934998 7.8115001
98.58213 -78.884438 8.1350622
98.633301 -78.636803 8.1367006
98.6698 -78.408401 8.108099
98.705399 -78.112808 8.1429005
98.5756 -78.910202 8.3959999
98.626297 -78.641891 8.365201
98.663582 -78.401253 8.3650827
98.710197 -78.160797 8.3593998
98.739326 -77.951164 8.3406668
98.788002 -77.811996 8.4510002
98.473495 -78.863495 8.5609999
98.563004 -78.817505 8.6210003
98.471001 -78.683998 8.5790005
98.533997 -78.595497 8.64575
98.621666 -78.321327 8.677
98.662201 -78.121597 8.5641994
98.719009 -77.875999 8.6879997
98.555 -78.851852 8.8671427
98.602333 -78.622169 8.8741674
98.653168 -78.382751 8.8918333
98.70575 -78.118164 8.868083
98.731331 -77.92466 8.9013329
98.757751 -77.787003 8.9115
98.57428 -78.65506 9.136611
98.650497 -78.347305 9.1350002
98.694901 -78.136398 9.1163006
98.738503 -77.93 9.1379995
98.77317 -77.78167 9.156333
98.582703 -78.639 9.3913002
98.647285 -78.39286 9.360857
98.706001 -78.107002 9.2928343
98.767998 -78.028999 9.4809999
98.735001 -77.945496 9.3544998
98.775002 -77.800003 9.3319998
98.799255 -77.682999 9.3327503
98.596603 -78.6278 9.6416998
98.661453 -78.398575 9.6247387
98.697502 -78.078506 9.6550007
98.751999 -78.069 9.6564999
98.733002 -77.924995 9.6073332
98.78833 -77.792496 9.6140003
98.787659 -77.624664 9.6616669
98.604202 -78.610794 9.868
98.653709 -78.381577 9.8644285
98.700302 -78.139297 9.8594999
98.73925 -77.947998 9.8409996
98.767242 -77.823502 9.8577499
98.788506 -77.624168 9.9115
98.603745 -78.621246 10.091499
98.64975 -78.460747 10.12
98.719505 -78.116005 10.148334
98.782997 -77.805 10.04
98.653999 -77.703003 10.113
98.800003 -77.711998 10.05
98.603668 -78.677002 10.367667
98.639999 -78.341751 10.434999
98.694122 -78.119629 10.3695
98.731834 -77.941338 10.399167
98.762497 -77.908997 10.2505
98.806503 -77.716499 10.4045
98.639832 -78.350502 10.6575
98.708496 -78.143494 10.681499
98.734001 -77.942665 10.607167
98.761002 -77.846497 10.739
98.779503 -77.748001 10.617001
98.601501 -78.6735 10.943501
98.633003 -78.363251 10.902499
98.709 -78.058998 10.84775
98.737747 -77.916748 10.9715
98.766335 -77.831337 10.858666
98.568329 -78.682671 11.148833
98.627075 -78.357918 11.085584
98.683502 -78.123001 11.14325
98.721001 -77.959747 11.161
98.766495 -77.850006 11.094
98.787994 -77.582329 11.144
98.568336 -78.683006 11.309667
98.62706 -78.370872 11.352125
98.673668 -78.172333 11.350667
98.730659 -77.919334 11.345334
98.793999 -77.586998 11.323
98.650497 -78.320496 11.58225
98.714249 -78.061996 11.55825
