# .PCD v0.7 - Point Cloud Data file format
VERSION 0.7
FIELDS x y z
SIZE 4 4 4
TYPE F F F
COUNT 1 1 1
WIDTH 362
HEIGHT 1
VIEWPOINT -18.2321 96.2205 -1.35163 -0.354149 -0.00701479 0.0211809 0.934923
POINTS 362
DATA ascii
3.8099999 -34.317001 -0.0020000001
3.8844602 -34.112091 -0.071942046
4.0180001 -34.011002 -0.021
3.9655001 -33.961502 -0.091499999
4.0839958 -33.837727 -0.064681254
3.3854001 -35.432301 0.1104
3.107285 -35.158943 0.12378127
3.5174 -34.8354 0.1666
3.4421003 -34.746304 0.24329999
3.5925665 -34.646523 0.1281307
3.6252189 -34.465187 0.22256251
3.850337 -34.314445 0.13989405
3.9187143 -34.132027 0.14235336
4.0317941 -34.06461 0.099289685
3.9769373 -33.976753 0.2129375
4.1227403 -33.851967 0.14150649
4.2089396 -33.669914 0.17771459
3.1942983 -35.654713 0.34245396
3.2589014 -35.570671 0.35505119
3.283 -35.435501 0.347
3.2575002 -35.165501 0.3565
3.3341579 -34.880436 0.35295272
3.4586918 -34.707008 0.37155452
3.5363412 -34.589127 0.39800364
3.6396434 -34.433891 0.41217512
3.8090136 -34.277973 0.3792634
3.8852723 -34.091137 0.37935087
3.9707 -33.966301 0.39955455
4.0376506 -33.878502 0.36464536
4.1848512 -33.65966 0.40302974
3.344713 -35.575676 0.60946786
3.3529999 -35.454723 0.59950006
3.3369167 -35.059998 0.61658329
3.3768091 -34.874596 0.61182439
3.5261669 -34.788582 0.60183334
3.4489675 -34.707703 0.62171435
3.5756826 -34.6087 0.63123953
3.6217778 -34.451782 0.61215872
3.8235185 -34.318462 0.58262962
3.7493334 -34.132999 0.72300005
3.8812277 -34.120811 0.62432164
4.023222 -34.062057 0.58505559
3.9738808 -33.946335 0.64212698
4.0958319 -33.855522 0.61175406
4.176198 -33.676708 0.65462184
3.3259695 -34.859543 0.85173386
3.4656031 -34.650673 0.86364049
3.5366828 -34.571766 0.91804755
3.5945702 -34.460838 0.86536515
3.8410001 -34.256001 0.99800003
3.7405 -34.125999 0.87599999
3.8362346 -34.108681 0.90332156
4.0170002 -34.001999 0.98299998
3.9736352 -33.947845 0.89283335
4.0604348 -33.850895 0.918163
4.1847234 -33.654293 0.89558381
3.2427502 -35.47221 1.1939583
3.3707333 -35.410133 1.067
3.2478395 -34.935116 1.1988661
3.3647373 -34.854774 1.0924613
3.4464333 -34.664452 1.1625959
3.5534182 -34.612923 1.1036788
3.6469841 -34.405674 1.1298254
3.8043716 -34.304646 1.0523535
3.7429473 -34.237316 1.1472633
3.8691926 -34.136749 1.1212298
4.0219998 -34.051003 1.0198333
3.9408336 -33.936104 1.137831
4.0659037 -33.831314 1.1133208
4.1653833 -33.639008 1.111708
3.2483959 -34.928978 1.3858957
3.3401077 -34.840927 1.3952472
3.4464691 -34.640347 1.3475034
3.5311339 -34.602745 1.4369167
3.6477623 -34.378723 1.3848333
3.7865 -34.335335 1.4760833
3.7434173 -34.227654 1.362195
3.8590596 -34.135689 1.3928186
4.02 -34.0275 1.4744999
3.9371977 -33.925247 1.348392
4.0908041 -33.852535 1.4412074
4.154459 -33.628391 1.3325125
3.2084534 -35.185921 1.6666132
3.3197498 -35.223999 1.5555
3.2399998 -34.907249 1.607
3.3451195 -34.840908 1.602073
3.4145863 -34.645233 1.6487845
3.5280085 -34.614567 1.5564501
3.6341021 -34.435528 1.6407042
3.7650001 -34.345333 1.5150001
3.704 -34.135506 1.6415666
3.8490655 -34.086617 1.5918797
3.9603498 -33.911728 1.6386591
4.0289168 -33.839123 1.5934401
4.1325269 -33.623913 1.6214585
3.0807362 -35.325573 1.876572
3.1873341 -35.183243 1.826853
3.3095 -35.091331 1.9349999
3.2353749 -34.92075 1.8026249
3.3476794 -34.829323 1.8984312
3.4175358 -34.642357 1.8511226
3.5721853 -34.62904 1.9494444
3.6629906 -34.386082 1.9135056
3.782773 -34.331367 1.9342728
3.7278366 -34.140965 1.8090369
3.8653085 -34.102608 1.8967652
4.0180001 -34.006001 1.9170001
3.9408174 -33.913105 1.9219207
4.0726423 -33.83577 1.8839556
4.1495247 -33.658047 1.8974833
3.299 -35.076 2.016
3.210875 -34.922379 2.1012917
3.2994318 -34.823517 2.1021605
3.4015865 -34.651104 2.1384292
3.6131463 -34.343586 2.1369336
3.7153332 -34.204239 2.1428499
3.7957797 -34.10844 2.1365993
3.9320107 -33.876659 2.129432
4.096148 -33.640903 2.1260808
3.2160001 -34.909752 2.3144999
3.3432295 -34.812363 2.3762572
3.4202909 -34.619122 2.3905852
3.5658751 -34.610752 2.3924999
3.6453505 -34.3783 2.3643789
3.7277446 -34.196358 2.4212167
3.8448963 -34.115856 2.3781924
3.9361403 -33.895275 2.3620706
4.088685 -33.839741 2.3697994
4.1221886 -33.659893 2.3675718
3.2460001 -35.294998 2.5150001
3.2535 -35.3815 2.5580001
3.2340438 -34.862667 2.6104105
3.2904835 -34.774502 2.6461165
3.3986981 -34.631817 2.6286888
3.4909999 -34.4995 2.6430001
3.6167767 -34.35125 2.6350484
3.7043653 -34.086536 2.6304989
3.9100871 -33.893105 2.6296766
4.0896153 -33.639275 2.6308413
3.392 -35.500999 2.921
3.3310001 -35.350498 2.9169998
3.342 -35.242001 2.9230001
3.2308669 -34.871387 2.8531332
3.3578095 -34.834251 2.8828621
3.3845136 -34.674801 2.873913
3.5790555 -34.565353 2.8432963
3.6296935 -34.36919 2.861479
3.7684 -34.2714 2.8501999
3.7164938 -34.181316 2.9034395
3.8763011 -34.060383 2.8398471
3.9300156 -33.877235 2.893033
4.0637441 -33.857086 2.809994
4.1222372 -33.653572 2.8637776
3.247 -35.306 3.063
3.253 -35.363998 3.243
3.24 -35.231998 3.007
3.2293167 -34.874634 3.1706915
3.2984972 -34.75996 3.1652112
3.3696954 -34.639984 3.1270015
3.4873333 -34.454002 3.187
3.5772634 -34.351242 3.130594
3.7076025 -34.175301 3.1676662
3.8254001 -34.080101 3.1077335
3.906801 -33.857315 3.1216061
4.0707254 -33.621429 3.098712
3.3076 -35.350395 3.3861001
3.237 -35.179001 3.45
3.3516667 -35.209332 3.358
3.2223332 -34.856617 3.4301193
3.3479793 -34.790318 3.3394165
3.378648 -34.66132 3.3697371
3.5512199 -34.579933 3.2953198
3.4840002 -34.467735 3.3919663
3.6270885 -34.353966 3.364681
3.7656667 -34.254333 3.2674999
3.7112358 -34.113308 3.3889134
3.8610723 -34.100689 3.2930946
3.6805 -33.9785 3.48
3.8898125 -33.908485 3.3802838
4.0417466 -33.830353 3.2791533
3.9710002 -33.742092 3.4558182
4.1138296 -33.614502 3.3342195
3.2360001 -35.166 3.6719999
3.2217252 -34.82378 3.6376333
3.2615416 -34.771126 3.6493335
3.3668134 -34.626572 3.6259143
3.5374498 -34.572903 3.7390499
3.4784288 -34.468857 3.5941429
3.6082411 -34.335835 3.6189988
3.7550001 -34.258667 3.7300003
3.7065334 -34.115868 3.6048667
3.8416667 -34.087269 3.7062109
3.6819999 -33.991001 3.517
3.8854477 -33.909832 3.6073174
4.0428329 -33.826103 3.7134213
3.9786873 -33.716751 3.58675
4.1299214 -33.614849 3.650183
3.3494999 -35.044998 3.8055
3.1966376 -34.837383 3.8861918
3.326889 -34.783081 3.8217776
3.3668261 -34.622066 3.8667166
3.469713 -34.448177 3.8686113
3.5650222 -34.351624 3.83834
3.6833067 -34.152081 3.8619516
3.7860932 -34.082268 3.8759537
3.9026899 -33.85778 3.858052
4.0735798 -33.616917 3.8652475
3.2118125 -34.808094 4.0870624
3.3698921 -34.623985 4.1121154
3.5208809 -34.569557 4.197298
3.4629388 -34.446304 4.0869074
3.612205 -34.356857 4.1495552
3.694628 -34.166214 4.1068025
3.8264506 -34.087193 4.1328673
3.9058495 -33.891304 4.1294479
4.0427713 -33.799004 4.1621933
3.9685383 -33.746773 4.0538464
4.102756 -33.631863 4.1425948
3.2888083 -35.296227 4.3665752
3.244 -35.243 4.2810001
3.3268998 -35.174801 4.3347001
3.1936002 -34.8424 4.4745998
3.3197145 -34.752003 4.3587146
3.3641281 -34.626236 4.3733001
3.4481251 -34.402725 4.443675
3.5802901 -34.341179 4.3483872
3.6664164 -34.142784 4.4017906
3.7941294 -34.069458 4.2996378
3.7120833 -33.96917 4.4586248
3.8666577 -33.890854 4.3636465
3.9326494 -33.681091 4.4353395
4.0856204 -33.590519 4.3385024
4.1588354 -33.389336 4.407598
3.2638333 -35.304337 4.7313337
3.325875 -35.1315 4.7212505
3.1782918 -34.835045 4.5958338
3.3058336 -34.793781 4.6212778
3.230125 -34.701687 4.6106043
3.3698909 -34.605484 4.6284184
3.5220001 -34.5345 4.6479998
3.445889 -34.398731 4.601016
3.5814629 -34.359612 4.6340361
3.6688662 -34.148228 4.6154451
3.8251991 -34.070972 4.6122594
3.7426667 -33.946671 4.5066667
3.8839917 -33.87989 4.6328635
4.009625 -33.838875 4.6101251
3.9530001 -33.708504 4.7086
4.1104927 -33.619888 4.593421
4.1945767 -33.413002 4.6458368
3.2271664 -35.302082 4.890667
3.2375002 -35.154999 4.7834997
3.2118571 -34.812141 4.9147854
3.2190001 -34.747124 4.8447504
3.3081489 -34.608707 4.8752089
3.4308383 -34.431957 4.8592029
3.5413728 -34.280567 4.8630357
3.6560585 -34.107216 4.8638482
3.8342183 -33.887703 4.8738127
3.956213 -33.694225 4.8660226
4.0784965 -33.580086 4.8917871
4.1553831 -33.420792 4.8732367
3.2279999 -35.301498 5.0300002
3.3101668 -35.308582 5.1729164
3.217 -35.18 5.0489998
3.2966669 -35.12875 5.1779165
3.1949999 -34.855667 5.1116672
3.2208297 -34.736416 5.1502223
3.3814149 -34.629505 5.1018801
3.5172501 -34.525002 5.0962501
3.4371541 -34.436325 5.1282578
3.5828652 -34.344784 5.1082749
3.6693902 -34.13028 5.1140261
3.7956805 -34.053413 5.0687084
3.8559387 -33.900513 5.1327925
4.0103335 -33.820667 5.0406666
3.9507947 -33.691406 5.1208096
4.0836315 -33.602451 5.0610342
4.152863 -33.392757 5.1250734
4.2425423 -33.246422 5.1825838
3.2240002 -35.282223 5.3732224
3.217 -35.18 5.3010001
3.181 -34.780499 5.3535004
3.2161808 -34.739166 5.3971739
3.3087661 -34.613422 5.3488331
3.4317243 -34.429989 5.3785334
3.5405469 -34.281338 5.3719573
3.6707006 -34.101917 5.3793006
3.8457143 -33.884544 5.3877978
3.9382243 -33.669941 5.3211842
4.0929847 -33.586197 5.3991923
4.1552815 -33.398266 5.3768001
4.2372837 -33.241989 5.4141417
3.2012196 -35.335537 5.631988
3.2249999 -35.248001 5.7420001
3.3088002 -35.138851 5.6119499
3.1919999 -34.889 5.7080002
3.365 -34.891998 5.5609999
3.2203751 -34.710377 5.6618333
3.3376336 -34.626377 5.6222758
3.5080001 -34.518665 5.5463333
3.5863335 -34.370499 5.541111
3.7943573 -34.044716 5.5447855
3.7450001 -33.948269 5.6460667
3.8602543 -33.843899 5.6124067
4.0124998 -33.783501 5.5149999
3.9735973 -33.615337 5.6098886
4.0228138 -33.547436 5.6471114
4.1444783 -33.38063 5.6325116
4.277833 -33.352612 5.7179441
4.2318339 -33.247498 5.5498343
4.3591394 -33.146782 5.5971785
2.9849999 -35.653999 5.9889998
3.1629791 -35.375633 5.8795485
3.2168891 -35.154781 5.8448892
3.194 -34.905998 5.8629999
3.2223792 -34.693188 5.8817997
3.2880001 -34.596001 5.8010001
3.2490001 -34.439999 5.822
3.313 -34.330002 5.9650002
3.8701019 -33.839607 5.8896527
4.0169997 -33.751602 5.9600005
3.9721951 -33.61327 5.8457346
4.0874662 -33.585316 5.9118443
4.1442742 -33.398102 5.8748493
4.2270555 -33.22942 5.8503003
4.3361411 -33.084446 5.859592
2.9566972 -35.684658 6.1320634
3.168746 -35.384735 6.1300588
3.2479999 -35.216999 6.119
3.2956583 -35.135078 6.0886087
3.2130001 -34.838001 6.1539998
3.2277863 -34.694561 6.1347518
3.3046808 -34.557808 6.1165004
3.3568611 -34.440556 6.0979443
3.8175054 -33.835293 6.1176677
3.9408808 -33.643368 6.1211567
4.0182414 -33.613903 6.1467557
4.1153646 -33.352089 6.1388412
4.2657499 -33.283875 6.2347498
4.233819 -33.220043 6.1085558
4.3316588 -33.13541 6.0980873
4.4310198 -32.912971 6.1402764
3.1422222 -35.37603 6.3636045
3.2090001 -35.050003 6.3039999
3.2030001 -34.977001 6.355
3.2129998 -34.680054 6.2802219
3.9297137 -33.65736 6.3752003
4.0633802 -33.599312 6.3860669
4.1470561 -33.395603 6.3705707
4.2089257 -33.223408 6.4117408
4.2977781 -33.097786 6.3587341
4.4146695 -32.925171 6.3763871
4.5540495 -32.850048 6.3606672
3.92716 -33.61903 6.6362906
3.9949999 -33.497749 6.704875
4.1043987 -33.401062 6.6349959
4.2118492 -33.202965 6.6427269
4.3306932 -33.061085 6.636302
4.4437733 -32.888519 6.6276255
4.5120001 -32.93 6.5254998
3.9291389 -33.675457 6.8732109
