# .PCD v0.7 - Point Cloud Data file format
VERSION 0.7
FIELDS x y z
SIZE 4 4 4
TYPE F F F
COUNT 1 1 1
WIDTH 65
HEIGHT 1
VIEWPOINT -18.2321 96.2205 -1.35163 -0.354149 -0.00701479 0.0211809 0.934923
POINTS 65
DATA ascii
-47.356918 5.7309165 8.4206667
-47.163582 5.6586671 8.4068336
-47.605778 5.8126664 8.3530273
-47.322002 5.7255559 8.6522226
-47.137001 5.6579332 8.6286669
-47.858337 5.9173064 8.6325006
-47.647831 5.8421669 8.6627502
-47.481503 5.7795 8.6095009
-49.388916 6.4685001 8.6035833
-49.148926 6.3826671 8.6337624
-48.882935 6.2853336 8.6290674
-49.819336 6.633667 8.7106667
-49.622971 6.5545001 8.6478338
-47.276997 5.7195001 8.8616667
-47.103943 5.6555557 8.8397226
-46.925919 5.5943332 8.918417
-47.936798 5.9596672 8.8671341
-47.644463 5.8492088 8.8422918
-47.427612 5.7719445 8.863945
-48.759338 6.2480001 8.8136673
-49.337948 6.460834 8.8477221
-49.133801 6.3927336 8.9071331
-48.889084 6.2990832 8.8736668
-50.101501 6.7414999 8.9594994
-49.844944 6.6481671 8.9265003
-49.619957 6.5627089 8.8462086
-49.480171 6.5159168 8.9003334
-50.276001 6.802 8.9989996
-47.148502 5.6845002 9.1414766
-47.865833 5.9435477 9.1558809
-47.585476 5.8409448 9.1443338
-47.381168 5.7655001 9.1081667
-49.327999 6.4949999 9.1774998
-49.143188 6.4120359 9.0953331
-50.078167 6.7383337 9.1011667
-49.872639 6.6669335 9.1414995
-49.641834 6.5850558 9.1565275
-49.374668 6.5013332 9.0696669
-50.235889 6.796556 9.1505556
-47.123882 5.6858501 9.3859835
-47.854778 5.9498887 9.3791122
-47.647663 5.8761115 9.4162226
-47.386906 5.7795715 9.3708811
-50.035416 6.7318335 9.3032503
-49.8615 6.6715002 9.3175001
-49.715 6.6170001 9.3059998
-47.267334 5.7486668 9.6556664
-47.09404 5.6860833 9.6305008
-47.850113 5.9600005 9.6455564
-47.627117 5.8784447 9.6366386
-47.381668 5.7886667 9.6228333
-47.973282 6.0061111 9.6488886
-47.252666 5.7466669 9.7563334
-47.136204 5.7116003 9.8830004
-47.841892 5.9678893 9.9112225
-47.629101 5.8883667 9.8522997
-47.429752 5.8184166 9.9064999
-47.939667 6.0009995 9.835
-47.844746 5.977694 10.106584
-47.60461 5.891222 10.115444
-47.374203 5.8070669 10.120934
-48.0075 6.0425 10.15
-47.995834 6.0415001 10.164667
-47.629982 5.9216671 10.372355
-47.355606 5.8305206 10.371188
