# .PCD v0.7 - Point Cloud Data file format
VERSION 0.7
FIELDS x y z
SIZE 4 4 4
TYPE F F F
COUNT 1 1 1
WIDTH 158
HEIGHT 1
VIEWPOINT -18.2321 96.2205 -1.35163 -0.354149 -0.00701479 0.0211809 0.934923
POINTS 158
DATA ascii
101.3195 -60.550499 14.6775
101.38999 -60.354004 14.683
101.4245 -60.1325 14.693501
101.298 -60.596874 14.837251
101.237 -60.256001 14.991
101.34478 -60.358444 14.850834
101.35851 -60.121075 14.864644
101.253 -60.752998 15.174
101.21812 -60.644623 15.03775
101.266 -60.6105 15.18
101.226 -60.401501 15.0455
101.34949 -60.335503 15.12925
101.3698 -60.128796 15.099001
101.23533 -60.674835 15.370999
101.25433 -60.586666 15.287666
101.29393 -60.40443 15.355357
101.35477 -60.139004 15.350222
101.36317 -59.899334 15.354167
101.5668 -59.821205 15.4056
101.15719 -60.893188 15.604374
101.2142 -60.608398 15.582201
101.24275 -60.4585 15.607
101.2867 -60.316601 15.592
101.31525 -60.121662 15.646667
101.4026 -59.892902 15.588199
101.61298 -59.808929 15.650714
101.156 -60.881142 15.858215
101.19194 -60.582127 15.869813
101.2244 -60.427002 15.887199
101.26213 -60.319626 15.852249
101.29903 -60.087666 15.829634
101.37286 -59.923573 15.863072
101.6395 -59.809639 15.876929
101.13686 -60.862217 16.113382
101.15726 -60.635632 16.145567
101.21657 -60.3465 16.151937
101.27 -60.146698 16.138901
101.36757 -59.93343 16.120214
101.61644 -59.836208 16.141857
101.12521 -60.654423 16.367428
101.18204 -60.378197 16.3631
101.23466 -60.160248 16.384083
101.2865 -60.044502 16.3015
101.354 -59.926125 16.355999
101.59475 -59.843376 16.38575
101.10271 -60.654358 16.631359
101.14323 -60.4245 16.640232
101.21531 -60.159626 16.643063
101.2435 -59.967003 16.5485
101.35369 -59.918098 16.615101
101.5782 -59.823597 16.638601
101.394 -59.487999 16.691
101.09933 -60.650894 16.864111
101.134 -60.404102 16.8617
101.1995 -60.128998 16.860691
101.231 -59.959 16.921
101.36076 -59.928501 16.8445
101.58571 -59.8274 16.9168
101.085 -60.642143 17.13257
101.11433 -60.380207 17.145832
101.18243 -60.095501 17.151499
101.224 -59.953499 17.109749
101.39475 -59.911873 17.085751
101.565 -59.822998 17.157
101.0755 -60.621147 17.341856
101.10844 -60.355072 17.365927
101.17087 -60.09481 17.387751
101.22633 -59.954334 17.341
101.38967 -59.908001 17.361082
101.55812 -59.818497 17.386625
101.06417 -60.612499 17.625834
101.09387 -60.370567 17.645374
101.16225 -60.088749 17.658918
101.19325 -59.933746 17.607
101.39286 -59.860859 17.636572
101.55901 -59.795502 17.639751
101.05624 -60.597996 17.873751
101.08343 -60.338142 17.865356
101.14787 -60.079414 17.897875
101.20425 -59.915752 17.859501
101.37801 -59.837429 17.874714
101.54825 -59.765503 17.88875
101.04488 -60.589622 18.119249
101.07787 -60.359253 18.146873
101.1467 -60.091805 18.142498
101.21237 -59.896 18.111126
101.395 -59.812168 18.140585
101.532 -59.754501 18.16
101.58401 -59.673336 18.16
101.04367 -60.58783 18.34025
101.07615 -60.331932 18.368786
101.14203 -60.081596 18.357899
101.1875 -59.880665 18.337332
101.36513 -59.793747 18.411625
101.485 -59.724998 18.489
101.54875 -59.713749 18.3745
101.03656 -60.5825 18.611874
101.06701 -60.350498 18.65
101.12566 -60.106892 18.655916
101.17812 -59.873627 18.609501
101.33175 -59.796875 18.63525
101.46149 -59.741169 18.652502
101.59049 -59.626831 18.625666
101.03916 -60.583416 18.844584
101.0705 -60.3265 18.866573
101.12038 -60.109463 18.88625
101.17233 -59.869335 18.839167
101.34483 -59.795498 18.895166
101.43683 -59.72583 18.914665
101.55967 -59.669666 18.842333
101.04475 -60.585419 19.088709
101.0678 -60.356194 19.1036
101.11184 -60.138916 19.146002
101.17451 -59.878124 19.116791
101.27875 -59.787251 19.098251
101.3825 -59.707996 19.142834
101.57487 -59.608246 19.136
101.03025 -60.591503 19.349749
101.06333 -60.381001 19.336
101.1071 -60.152687 19.358521
101.18467 -59.874668 19.346834
101.194 -59.736332 19.356001
101.38025 -59.705498 19.3955
101.56683 -59.610332 19.3645
101.06725 -60.382126 19.611626
101.10606 -60.147808 19.608334
101.18437 -59.873623 19.599751
101.19534 -59.736004 19.608999
101.378 -59.667126 19.658875
101.5627 -59.5667 19.630901
101.625 -59.372498 19.660999
101.07562 -60.350754 19.858624
101.12099 -60.126362 19.830429
101.18567 -59.872837 19.852167
101.20175 -59.7145 19.88475
101.37151 -59.631401 19.8929
101.52575 -59.553249 19.888
101.59244 -59.365879 19.870251
101.078 -60.339249 20.095335
101.14579 -60.096664 20.103876
101.20541 -59.867752 20.1255
101.20625 -59.661587 20.126583
101.37444 -59.557148 20.125143
101.4325 -59.4515 20.223
101.58736 -59.396858 20.153858
101.63024 -59.146248 20.126125
101.08378 -60.341446 20.357334
101.15383 -60.088085 20.352751
101.21234 -59.886662 20.364668
101.22086 -59.654144 20.400143
101.23399 -59.471001 20.338501
101.35575 -59.397812 20.399876
101.55 -59.3255 20.3195
101.63706 -59.156853 20.382772
101.2238 -59.863792 20.571201
101.23849 -59.616997 20.5485
101.27433 -59.402668 20.538
101.626 -59.129002 20.514999
