# .PCD v0.7 - Point Cloud Data file format
VERSION 0.7
FIELDS x y z
SIZE 4 4 4
TYPE F F F
COUNT 1 1 1
WIDTH 258
HEIGHT 1
VIEWPOINT -18.2321 96.2205 -1.35163 -0.354149 -0.00701479 0.0211809 0.934923
POINTS 258
DATA ascii
-63.282001 -43.52 11.496
-63.311829 -43.343166 11.475333
-63.562 -43.062 11.446
-63.369751 -43.090248 11.448501
-63.119335 -43.079998 11.480334
-63.414501 -42.912781 11.450557
-62.919502 -42.848499 11.4855
-63.448944 -42.648472 11.446027
-62.8475 -42.672001 11.4545
-63.492504 -42.431835 11.441917
-62.179001 -41.774002 11.429
-61.873001 -41.789001 11.451
-62.043671 -41.568249 11.4245
-61.848164 -41.678501 11.470166
-62.371166 -41.325542 11.417874
-62.209 -41.439667 11.402833
-61.900501 -41.338749 11.438499
-61.7855 -41.165001 11.417999
-61.726501 -41.068249 11.42925
-61.599625 -40.8885 11.4225
-61.074799 -40.114601 11.412
-60.289001 -40.066498 11.48475
-60.906002 -39.908501 11.398625
-60.575169 -39.874001 11.45
-60.429749 -39.973999 11.476749
-61.266998 -39.746498 11.356501
-61.066753 -39.604916 11.381583
-60.896572 -39.635071 11.395143
-60.666695 -39.630199 11.402699
-60.369877 -39.588127 11.42225
-60.109749 -39.536415 11.443334
-59.922001 -39.507 11.421
-61.148502 -39.458168 11.402166
-60.607666 -39.368332 11.455501
-60.518002 -39.230999 11.437
-60.436249 -39.103249 11.467751
-60.312 -38.917 11.463
-60.244999 -38.82 11.496
-60.171001 -38.709 11.485
-56.759998 -47.784 11.724
-56.694748 -47.845001 11.71925
-56.873646 -47.62635 11.71835
-56.982498 -47.462502 11.735001
-56.602749 -47.48 11.73425
-56.395 -47.441002 11.691
-56.761497 -47.176003 11.748
-56.657997 -47.0205 11.746
-62.941002 -45.259998 11.747
-62.980251 -45.054497 11.737
-63.027668 -44.830898 11.713034
-62.998501 -44.965 11.740999
-62.009998 -44.525002 11.724
-61.875 -44.298 11.729335
-62.173779 -44.164276 11.736556
-61.686001 -44.098 11.738
-63.261833 -43.624336 11.522667
-63.104305 -43.5961 11.614476
-63.296501 -43.402 11.6215
-63.218616 -43.394524 11.593821
-63.359501 -43.083 11.5035
-63.097122 -43.097878 11.602375
-63.407333 -42.902336 11.533
-62.934502 -42.858749 11.569
-63.453831 -42.64167 11.555501
-62.823002 -42.688 11.58125
-60.762001 -42.731998 11.694
-60.61631 -42.560436 11.692688
-60.390125 -42.656311 11.729939
-63.518501 -42.353001 11.547
-63.4865 -42.459 11.5415
-60.607166 -42.394169 11.671833
-60.453999 -42.269001 11.693
-60.514999 -42.249001 11.661
-60.335251 -42.089249 11.7
-62.044834 -41.547836 11.576834
-61.886097 -41.647491 11.582713
-61.745499 -41.7355 11.645
-61.931999 -41.3605 11.55025
-61.819 -41.1875 11.5315
-61.722 -41.064999 11.549
-61.617752 -40.901001 11.53825
-60.30125 -40.043373 11.562
-60.409248 -39.960747 11.538
-61.061001 -39.521999 11.525
-60.769001 -39.639 11.523
-60.656666 -39.604332 11.507333
-60.425499 -39.595001 11.5245
-60.148666 -39.542332 11.5465
-61.144333 -39.456001 11.518001
-60.571999 -39.327 11.524
-60.500999 -39.220001 11.536
-60.421997 -39.108498 11.5325
-60.31525 -38.949749 11.532249
-60.213501 -38.800003 11.567499
-60.095337 -38.602329 11.518333
-59.826664 -48.113998 11.953334
-59.6395 -48.069 11.931499
-59.326168 -48.021667 11.913333
-59.142998 -48.127998 11.893499
-59.884663 -47.818665 11.978168
-59.7075 -47.915501 11.9735
-59.322498 -47.8745 11.928333
-59.132664 -47.967331 11.951333
-58.855377 -47.915623 11.914625
-59.1185 -47.567501 11.916667
-57.220001 -47.556 11.764
-56.863304 -47.530998 11.843901
-56.668999 -47.504002 11.875
-57.385925 -47.386223 11.82028
-57.2435 -47.474499 11.782
-56.890835 -47.375668 11.822833
-56.603001 -47.481251 11.826
-56.399128 -47.445499 11.810375
-56.688251 -47.081001 11.83575
-60.357498 -46.121002 11.9925
-60.785 -45.945999 11.985
-60.710999 -45.819 11.98
-60.101002 -45.758999 11.972
-62.664333 -45.528667 11.867167
-60.693001 -45.740002 11.969
-60.499001 -45.529999 11.98
-59.924999 -45.560001 11.984
-62.906361 -45.407997 11.792356
-62.549202 -45.3508 11.8794
-60.373333 -45.325665 11.978
-59.865002 -45.449001 11.969
-59.75 -45.294998 11.99
-62.965145 -45.15575 11.828625
-60.190998 -45.056 11.961667
-59.617001 -45.0975 11.9635
-63.025166 -44.855331 11.832833
-62.997002 -44.965 11.823
-60.074001 -44.862 11.951
-59.441498 -44.830002 11.9645
-59.916 -44.665501 11.961
-59.296001 -44.625999 11.953
-62.043999 -44.251999 11.752501
-61.920246 -44.428749 11.8395
-59.78875 -44.441498 11.942249
-59.692001 -44.334 11.956
-62.312332 -44.061337 11.793667
-62.189751 -44.147751 11.8175
-61.782997 -44.231251 11.802
-61.722 -44.124332 11.853
-58.929001 -44.061001 11.933001
-58.745998 -44.018002 11.928
-58.325817 -44.05481 11.914875
-58.590797 -43.85215 11.939951
-58.415249 -43.973339 11.929833
-59.264 -43.636002 11.893
-59.075584 -43.554501 11.944584
-58.896915 -43.655251 11.947166
-58.617001 -43.606499 11.938499
-59.366718 -43.33007 11.917822
-59.126877 -43.414623 11.919999
-58.522499 -43.433998 11.921
-58.436001 -43.359333 11.970333
-58.907333 -43.160503 11.923667
-58.293499 -43.141747 11.94125
-58.765999 -42.9515 11.923
-58.674751 -42.8195 11.9255
-58.138336 -42.89967 11.929166
-60.570751 -42.526085 11.80225
-60.352127 -42.669125 11.865166
-58.581497 -42.660831 11.905833
-58.018002 -42.720001 11.902
-57.952995 -42.632801 11.9378
-60.571499 -42.411751 11.81275
-60.473 -42.282001 11.75
-58.389999 -42.394749 11.911
-57.820171 -42.428665 11.901166
-57.7435 -42.331001 11.9335
-60.356998 -42.093334 11.8
-58.267754 -42.213753 11.898
-58.189003 -42.096001 11.910999
-57.621128 -42.146 11.906376
-58.075806 -41.920502 11.8958
-57.529999 -41.955002 11.852
-57.432499 -41.869499 11.92475
-57.890205 -41.645603 11.904501
-57.305626 -41.671249 11.8965
-57.774002 -41.487 11.865
-59.803669 -50.559166 12.231334
-60.252998 -50.257 12.215
-60.112801 -50.351997 12.209299
-59.941002 -50.459332 12.225668
-59.740002 -50.292 12.226
-60.372795 -50.184101 12.2107
-59.946999 -50.106998 12.212
-61.837002 -48.577667 12.107667
-62.316559 -48.319374 12.171875
-62.142124 -48.4095 12.136999
-61.835999 -48.453499 12.17775
-61.577301 -48.4398 12.1458
-62.652 -48.047001 12.074
-62.3545 -48.158623 12.103875
-62.231663 -48.075001 12.162499
-61.663597 -48.147705 12.1677
-59.3545 -48.010002 12.033
-62.679001 -47.994999 12.068
-62.430416 -47.847748 12.104584
-62.071098 -47.8503 12.1374
-59.812 -47.817333 12.032001
-59.329498 -47.892502 12.025499
-59.157501 -47.92075 12.03775
-58.904999 -47.918999 12.023
-62.569996 -47.638 12.054667
-62.48127 -47.60434 12.103834
-59.150002 -47.638 12.015
-60.793751 -45.953003 12.0835
-60.694 -45.806 12.084666
-60.139202 -45.881401 12.0755
-60.584251 -45.642624 12.06075
-60.01125 -45.690498 12.1005
-59.940662 -45.594166 12.105332
-60.393749 -45.352501 12.0765
-59.823002 -45.417999 12.0815
-59.717751 -45.271 12.103251
-60.262749 -45.153 12.08875
-60.167 -45.016998 12.069
-59.595375 -45.081497 12.080126
-60.080498 -44.890999 12.064501
-59.454002 -44.871002 12.025
-59.929245 -44.660374 12.061625
-59.326248 -44.679749 12.0285
-59.816002 -44.497002 12.076
-59.719002 -44.3545 12.0425
-58.30867 -44.042667 12.056667
-58.569397 -43.862999 12.068067
-58.436665 -43.94725 12.046582
-59.073334 -43.53783 12.036
-58.972 -43.610001 12.005
-58.617126 -43.629501 12.062563
-59.077 -43.370167 12.033
-58.416164 -43.344666 12.061166
-58.913666 -43.143665 12.049335
-58.318001 -43.193501 12.047501
-58.217003 -43.053001 12.0315
-58.7915 -42.9715 12.033
-58.709999 -42.846001 12.049
-58.102749 -42.8745 12.038
-58.588749 -42.666252 12.02475
-57.92725 -42.621002 12.040251
-58.417999 -42.415501 12.033
-57.797001 -42.431999 12.028
-57.747501 -42.334 12.037001
-58.280998 -42.223999 12.017
-58.201 -42.105 12.003
-57.5975 -42.129501 12.0165
-58.064999 -41.882999 12.028
-57.980999 -41.762001 12.01
-57.432503 -41.884499 12.0105
-57.820999 -41.521999 12.002
-57.327 -41.719002 12.007
-60.042 -50.364502 12.250999
-59.891998 -50.490002 12.26
-61.785 -48.420998 12.253
-61.638 -48.445999 12.255
