# .PCD v0.7 - Point Cloud Data file format
VERSION 0.7
FIELDS x y z
SIZE 4 4 4
TYPE F F F
COUNT 1 1 1
WIDTH 132
HEIGHT 1
VIEWPOINT -18.2321 96.2205 -1.35163 -0.354149 -0.00701479 0.0211809 0.934923
POINTS 132
DATA ascii
7.3867927 -29.634392 -0.10933346
7.1539698 -29.445271 -0.054838099
7.3080001 -29.5 -0.0099999998
7.4096498 -29.548086 0.096674062
7.512167 -29.521801 0.094933324
7.1472397 -29.422947 0.1140666
7.3119788 -29.48999 0.1510381
7.3906989 -29.599089 0.36406609
7.5264115 -29.556452 0.35471356
7.1503038 -29.434504 0.35040617
7.31075 -29.48575 0.38849998
7.4160156 -29.534708 0.6267994
7.5073752 -29.510925 0.60287499
7.141221 -29.414066 0.62976617
7.2961998 -29.461346 0.66251165
7.3938198 -29.593262 0.84744662
7.5187635 -29.546249 0.84340972
7.1408443 -29.424961 0.89494729
7.3012352 -29.467505 0.92386752
7.0109434 -29.513702 1.1009285
7.4210167 -29.52425 1.1141083
7.5076666 -29.510334 1.0226667
7.1299582 -29.405588 1.14495
7.3145142 -29.456442 1.1231332
7.0684562 -29.580788 1.2961974
7.3843732 -29.567087 1.3091869
7.5213032 -29.543894 1.2817425
7.1278644 -29.396938 1.3828855
7.3721128 -29.454994 1.4075145
7.0633574 -29.591854 1.7092237
7.3779054 -29.571487 1.6855114
7.5157504 -29.527439 1.7015624
7.1400566 -29.392591 1.6076232
7.3881974 -29.455633 1.5856653
7.455193 -29.519838 1.8469852
7.1309204 -29.362448 1.8508966
7.3776255 -29.447485 1.8691508
7.3876538 -29.552553 2.15976
7.138207 -29.382713 2.1451223
7.3800149 -29.423504 2.0738394
7.1252284 -29.333883 2.3921158
7.3735886 -29.425606 2.3526793
7.3874135 -29.554161 2.6102049
7.5079999 -29.505501 2.6115
7.1290565 -29.365759 2.6279685
7.3880019 -29.407427 2.6550095
7.5841632 -29.336092 2.6265886
7.665731 -29.219069 2.6119983
7.7544537 -29.242092 2.6477728
7.1132975 -29.32309 2.8672557
7.3739948 -29.393557 2.887723
7.5547895 -29.302692 2.9008374
7.676877 -29.209845 2.8781466
7.8086586 -29.222296 2.8538568
7.3779802 -29.522669 3.0823734
7.1294107 -29.352234 3.1189685
7.3851361 -29.404633 3.1178634
7.568161 -29.325031 3.0965252
7.6735277 -29.199829 3.1623821
7.3870001 -29.5105 3.4842501
7.1134777 -29.343208 3.3987844
7.3834872 -29.386566 3.3615468
7.5434418 -29.318829 3.3999333
7.6604171 -29.211779 3.4017093
7.3967981 -29.529865 3.5210457
7.0994358 -29.329247 3.6113653
7.3703852 -29.382544 3.6318753
7.147059 -29.232431 3.6525238
7.64397 -29.194921 3.61449
7.3980417 -29.521168 3.9664583
7.1320238 -29.339325 3.9048545
7.3772535 -29.399164 3.8643816
7.5300541 -29.317772 3.8714187
8.1266375 -29.377615 3.8809619
7.1265888 -29.207245 3.827322
7.6261597 -29.192736 3.8960392
7.8589139 -29.196592 3.8662639
7.115943 -29.339579 4.0968308
7.381587 -29.384172 4.1271486
7.5176501 -29.294922 4.1207561
8.1223402 -29.389206 4.087213
7.1062117 -29.194958 4.2063551
7.2715836 -29.235832 4.2366667
7.6277313 -29.170685 4.1475339
7.8830075 -29.170946 4.1267958
7.3990831 -29.51725 4.4134998
7.1332545 -29.326084 4.392921
7.3696437 -29.39279 4.3851042
7.5387497 -29.287937 4.3722005
8.0978937 -29.337952 4.4300389
7.1277499 -29.161709 4.3621249
7.6377478 -29.178082 4.3924255
7.8744826 -29.182013 4.3607969
7.1348653 -29.265455 4.6350832
7.3885932 -29.314514 4.6154981
7.4070001 -29.509001 4.8724999
7.1279206 -29.350811 4.86481
7.3886619 -29.345137 4.8620062
7.5391359 -29.299936 4.8547211
7.1147656 -29.195606 4.9250059
7.0359106 -29.251549 5.0499091
7.4004254 -29.300766 5.1443558
7.1353607 -29.186804 5.140532
7.2553368 -29.231611 5.1422915
7.1223941 -29.355495 5.306572
7.3892293 -29.350954 5.3677616
7.1226931 -29.191553 5.4034677
7.254364 -29.222729 5.4514551
7.400044 -29.288675 5.599741
7.1158528 -29.181446 5.5971513
7.2605829 -29.228083 5.5979166
6.8520846 -29.546675 5.8250103
6.6575146 -29.441996 5.8874531
6.9196749 -29.364471 5.8730965
7.087996 -29.327484 5.7641478
7.3818545 -29.341002 5.8151145
7.5139999 -29.309 5.7529998
6.9949999 -29.24 5.7969999
7.1145039 -29.144188 5.8643136
7.4091277 -29.215097 5.9025364
6.8406773 -29.521751 6.1561389
6.9181929 -29.368397 6.1133118
7.0592384 -29.316816 6.2017689
7.3616338 -29.334354 6.1699309
7.1287861 -29.135618 6.0968537
7.3978601 -29.214016 6.0957689
6.8746643 -29.369162 6.353579
7.4499435 -29.254204 6.3548093
6.9654002 -29.2479 6.45085
7.1214266 -29.120575 6.3495321
7.3739724 -29.211113 6.3787603
6.9880004 -29.196333 6.5533333
