# .PCD v0.7 - Point Cloud Data file format
VERSION 0.7
FIELDS x y z
SIZE 4 4 4
TYPE F F F
COUNT 1 1 1
WIDTH 1571
HEIGHT 1
VIEWPOINT -18.2321 96.2205 -1.35163 -0.354149 -0.00701479 0.0211809 0.934923
POINTS 1571
DATA ascii
-53.091747 -101.06192 12.375167
-52.906937 -101.17268 12.400187
-52.561111 -101.21893 12.426723
-53.372501 -100.8885 12.357917
-53.23875 -100.9695 12.407249
-43.130501 -108.791 12.5355
-43.297668 -108.55833 12.650333
-43.171665 -108.67467 12.630417
-43.600353 -108.328 12.622144
-43.437 -108.44825 12.59
-43.8941 -108.11412 12.620479
-43.742752 -108.22275 12.589
-44.287003 -107.78363 12.618251
-44.125286 -107.89928 12.610857
-43.999664 -107.99467 12.641
-44.5625 -107.5558 12.649166
-44.394539 -107.67767 12.673933
-44.867123 -107.31281 12.655562
-44.695877 -107.45025 12.590626
-45.113998 -107.11641 12.631517
-44.959888 -107.22788 12.676112
-45.358753 -106.92025 12.591875
-45.818901 -106.55809 12.6424
-45.65958 -106.68401 12.583167
-45.993 -106.429 12.564
-46.5135 -106.008 12.571
-46.408752 -106.09025 12.583563
-46.243 -106.206 12.677
-46.810001 -105.776 12.6665
-46.642712 -105.90154 12.644667
-47.0709 -105.5647 12.6415
-46.914768 -105.68111 12.652033
-47.369457 -105.32417 12.624374
-47.194798 -105.4656 12.6244
-47.76025 -105.01801 12.60975
-47.6255 -105.12675 12.603333
-48.046875 -104.78262 12.600375
-47.904583 -104.90342 12.611125
-48.346535 -104.5519 12.609133
-48.174999 -104.68811 12.615001
-48.602501 -104.34763 12.591374
-48.474667 -104.44534 12.642667
-48.865139 -104.14104 12.610892
-48.730499 -104.2365 12.6525
-49.293999 -103.80017 12.539
-49.137428 -103.92229 12.606788
-49.570587 -103.57633 12.604751
-49.413334 -103.69955 12.608223
-49.801403 -103.39541 12.6728
-49.710499 -103.46899 12.602333
-50.279999 -103.012 12.547
-50.553669 -102.78983 12.6255
-50.387074 -102.92213 12.595071
-50.844143 -102.56512 12.592761
-50.685043 -102.69142 12.649583
-51.108356 -102.352 12.62607
-50.974163 -102.458 12.643668
-51.567501 -102.0025 12.547
-51.39917 -102.11792 12.597168
-51.242752 -102.24475 12.618
-51.810303 -101.7969 12.62245
-51.633816 -101.93369 12.654499
-52.065998 -101.59181 12.642562
-51.940662 -101.689 12.648167
-52.788197 -101.302 12.647699
-52.748001 -101.338 12.665
-52.404556 -101.32394 12.646694
-52.223248 -101.46783 12.652416
-53.105202 -101.04179 12.6178
-52.921898 -101.1561 12.6263
-52.551666 -101.21084 12.6455
-53.356918 -100.88683 12.61975
-53.217247 -100.97501 12.59125
-43.293125 -108.548 12.91725
-43.109638 -108.69836 12.855834
-43.607876 -108.30275 12.862125
-43.433582 -108.44175 12.863833
-43.845814 -108.10976 12.87675
-43.734001 -108.202 12.773
-44.26025 -107.7775 12.90925
-44.131916 -107.88559 12.859584
-43.995998 -107.988 12.908
-44.56525 -107.53584 12.889416
-44.385403 -107.6688 12.904035
-44.8158 -107.33881 12.8573
-44.684799 -107.4472 12.840601
-45.106709 -107.10899 12.906751
-44.970375 -107.21575 12.911501
-45.354137 -106.91357 12.859243
-45.8279 -106.5415 12.862799
-45.65477 -106.674 12.847778
-46.111004 -106.30933 12.905167
-45.951836 -106.43967 12.899834
-46.511002 -106.003 12.774
-46.384373 -106.09695 12.849688
-46.243 -106.20467 12.839
-46.771751 -105.7815 12.90425
-46.634109 -105.89297 12.892776
-47.066833 -105.55751 12.902
-46.901917 -105.68741 12.907417
-47.334198 -105.3394 12.8808
-47.204998 -105.4496 12.880099
-47.755169 -105.00784 12.847167
-47.620281 -105.11644 12.844055
-47.455494 -105.24384 12.851666
-48.0382 -104.78459 12.829
-47.901001 -104.897 12.844501
-48.296501 -104.57279 12.871399
-48.160282 -104.69021 12.868286
-48.612625 -104.32504 12.862332
-48.430248 -104.46513 12.905749
-48.867752 -104.12575 12.867812
-48.728333 -104.233 12.855
-49.147247 -103.90359 12.850167
-49.566055 -103.56789 12.848777
-49.389587 -103.70825 12.845582
-49.7915 -103.39412 12.899
-49.693665 -103.46767 12.846833
-50.284248 -103.0205 12.81275
-50.539333 -102.79366 12.853333
-50.382889 -102.91428 12.866279
-50.825165 -102.57233 12.845666
-50.663502 -102.69956 12.862562
-51.101501 -102.35013 12.866125
-50.94875 -102.46875 12.909
-51.3839 -102.12194 12.860708
-51.240002 -102.24017 12.853
-51.797688 -101.79893 12.8435
-51.641426 -101.92213 12.901428
-52.078281 -101.57029 12.878072
-51.936752 -101.68225 12.88225
-52.807499 -101.2645 12.912
-52.74625 -101.33525 12.886
-52.343426 -101.36205 12.880524
-52.197502 -101.47575 12.8815
-53.087196 -101.04169 12.8775
-52.910446 -101.15079 12.880333
-52.546623 -101.20337 12.906
-53.313831 -100.90267 12.844417
-53.194 -100.97699 12.856
-43.289669 -108.54083 13.142999
-43.116932 -108.67944 13.130366
-43.563499 -108.33 13.106626
-43.420502 -108.4435 13.124166
-43.858532 -108.08837 13.141594
-43.6605 -108.24625 13.10925
-44.258499 -107.7745 13.094999
-44.120701 -107.882 13.118151
-43.993 -107.9805 13.093
-44.555832 -107.55176 13.095333
-44.394054 -107.66401 13.150167
-44.831699 -107.3156 13.132899
-44.668602 -107.44759 13.1237
-45.108753 -107.09633 13.092375
-44.958332 -107.2145 13.148833
-45.352051 -106.90635 13.1275
-45.814835 -106.53201 13.156333
-45.649918 -106.66409 13.11325
-46.10886 -106.30514 13.140073
-45.946503 -106.428 13.165125
-46.376251 -106.09176 13.101251
-46.225601 -106.2076 13.1492
-46.768002 -105.774 13.087
-46.597721 -105.91052 13.147861
-47.06184 -105.54749 13.145667
-46.896225 -105.67545 13.144
-47.324501 -105.33862 13.088625
-47.187901 -105.4529 13.119901
-47.614277 -105.10495 13.155334
-47.452625 -105.23862 13.1155
-48.034416 -104.77489 13.12225
-47.892334 -104.89193 13.133739
-47.749004 -104.99599 13.157666
-48.293999 -104.5684 13.1318
-48.170498 -104.67363 13.09875
-48.618835 -104.30659 13.116434
-48.427498 -104.46025 13.089
-48.861542 -104.1185 13.094749
-48.723999 -104.22549 13.118
-49.14315 -103.89546 13.132299
-49.586205 -103.5396 13.1393
-49.40033 -103.68987 13.156181
-49.78767 -103.38717 13.141666
-49.688999 -103.45933 13.156001
-50.558876 -102.76987 13.117001
-50.393734 -102.89931 13.113234
-50.813301 -102.5687 13.134199
-50.691998 -102.66866 13.152333
-51.110401 -102.3302 13.090899
-50.945 -102.46201 13.09
-51.386108 -102.11247 13.124178
-51.234669 -102.231 13.162
-51.8405 -101.7535 13.0665
-51.648769 -101.90827 13.135092
-52.101997 -101.53819 13.1318
-51.914398 -101.6869 13.1604
-52.805332 -101.26167 13.133334
-52.739002 -101.32266 13.146333
-52.349392 -101.34633 13.136959
-52.193665 -101.46934 13.141999
-53.090622 -101.03326 13.088999
-52.916122 -101.14131 13.15025
-52.5485 -101.19029 13.117701
-53.347935 -100.87122 13.148844
-53.189251 -100.96825 13.11675
-53.836334 -100.56216 13.158
-53.674347 -100.66666 13.13725
-43.321999 -108.50349 13.349
-43.140381 -108.64748 13.37912
-43.558502 -108.31834 13.352833
-43.419468 -108.42766 13.384134
-43.832981 -108.0971 13.387476
-43.658665 -108.24267 13.335999
-44.25333 -107.7635 13.367
-44.095695 -107.8885 13.382199
-43.989334 -107.974 13.3675
-44.53133 -107.55084 13.349
-44.391582 -107.66016 13.39425
-44.795601 -107.33211 13.373533
-44.624001 -107.4698 13.3772
-45.099667 -107.0918 13.361389
-44.952873 -107.20338 13.414125
-45.371067 -106.87632 13.364624
-45.249001 -106.976 13.403999
-45.802166 -106.53584 13.401668
-45.64822 -106.6619 13.338444
-46.088539 -106.305 13.403251
-45.926601 -106.43294 13.385399
-46.372391 -106.08438 13.343332
-46.233002 -106.1855 13.389
-46.767334 -105.776 13.358833
-46.60717 -105.89517 13.393749
-46.499001 -105.979 13.427
-47.060375 -105.54525 13.410875
-46.894581 -105.67283 13.4095
-47.320999 -105.332 13.353168
-47.196499 -105.4337 13.3762
-47.599266 -105.10564 13.394167
-47.453499 -105.21851 13.379125
-48.035 -104.761 13.3305
-47.869381 -104.89298 13.371134
-47.745998 -104.992 13.319
-48.300301 -104.549 13.370399
-48.140373 -104.68025 13.3765
-48.591835 -104.31783 13.372566
-48.423752 -104.45391 13.359334
-48.856556 -104.11234 13.347777
-48.721668 -104.22167 13.341
-49.264 -103.7715 13.414
-49.130276 -103.90189 13.351223
-49.608917 -103.55392 13.3815
-49.415302 -103.66171 13.3772
-49.797127 -103.40863 13.407625
-49.645752 -103.46574 13.384501
-50.367001 -103.019 13.449
-50.593697 -102.7853 13.388
-50.409248 -102.89737 13.340125
-51.012001 -102.508 13.447
-50.847 -102.56 13.375333
-50.702168 -102.66117 13.393666
-51.332001 -102.254 13.431
-51.12429 -102.34989 13.345375
-50.938999 -102.45074 13.310499
-51.559753 -102.0805 13.448999
-51.372791 -102.13692 13.341928
-51.228001 -102.218 13.321
-51.662312 -101.88445 13.3655
-52.085899 -101.5428 13.3866
-51.897625 -101.69081 13.405937
-52.779999 -101.26151 13.37675
-52.731003 -101.308 13.346
-52.347168 -101.33958 13.375358
-52.188248 -101.46125 13.403749
-53.086166 -101.02466 13.350499
-52.898998 -101.14872 13.401715
-52.531605 -101.1926 13.377001
-53.371178 -100.84774 13.366501
-53.186001 -100.96366 13.338
-53.844421 -100.55399 13.372167
-53.652386 -100.67228 13.348332
-54.103371 -100.39024 13.41
-53.970253 -100.47508 13.400499
-43.320999 -108.502 13.637
-43.165314 -108.62137 13.627812
-43.543835 -108.32184 13.575001
-43.402164 -108.4285 13.630168
-44.014999 -108.039 13.72
-43.895336 -108.07633 13.647835
-43.672432 -108.1958 13.618899
-44.302002 -107.7695 13.642
-44.141094 -107.87474 13.627975
-43.987999 -107.9715 13.5865
-44.577332 -107.56167 13.698667
-44.397427 -107.63171 13.635
-44.857498 -107.33051 13.681832
-44.659832 -107.45223 13.590034
-45.279499 -107.05 13.743
-45.118557 -107.12592 13.650472
-44.94775 -107.19275 13.598001
-45.597748 -106.803 13.67675
-45.382584 -106.87891 13.611001
-45.217999 -106.97134 13.578667
-45.865715 -106.58 13.679285
-45.650665 -106.652 13.571
-46.109375 -106.34587 13.648874
-45.904003 -106.43699 13.556
-46.581665 -106.02567 13.691666
-46.371399 -106.10291 13.603601
-46.228333 -106.17734 13.653666
-46.831501 -105.83067 13.660834
-46.644001 -105.90962 13.623876
-46.495998 -105.973 13.589
-47.072002 -105.573 13.6555
-46.910248 -105.68649 13.606667
-47.550499 -105.26075 13.62575
-47.392498 -105.3578 13.616501
-47.1852 -105.42991 13.616099
-47.816498 -105.04974 13.62175
-47.680504 -105.15825 13.626749
-47.404999 -105.232 13.502
-48.018002 -104.79282 13.662666
-47.930748 -104.92139 13.6265
-48.501999 -104.51 13.628
-48.377998 -104.60275 13.595876
-48.147999 -104.72167 13.626334
-48.757 -104.298 13.555
-48.626495 -104.40667 13.575667
-48.498001 -104.499 13.544
-49.088501 -104.00549 13.630668
-48.900311 -104.13044 13.604749
-49.369041 -103.82391 13.544542
-49.178223 -103.97733 13.62889
-49.634621 -103.62288 13.569
-50.370998 -103.029 13.533
-50.631836 -102.8225 13.581834
-50.438 -102.977 13.53
-51.0205 -102.52575 13.591749
-50.849438 -102.5603 13.63525
-50.742664 -102.68734 13.639667
-51.341999 -102.274 13.516
-51.146667 -102.42133 13.513667
-51.592667 -102.05701 13.645
-51.437 -102.187 13.5135
-51.798336 -101.75751 13.641666
-51.687004 -101.86893 13.635563
-52.089996 -101.535 13.636668
-51.908627 -101.67155 13.640458
-52.758499 -101.26801 13.5405
-52.3643 -101.31697 13.589132
-52.2104 -101.4357 13.656199
-53.049 -101.03751 13.619
-52.892788 -101.14655 13.596334
-52.534752 -101.18375 13.589125
-53.380352 -100.83144 13.637429
-53.187752 -100.94804 13.6638
-53.828751 -100.55133 13.646667
-53.633778 -100.6714 13.657425
-54.0914 -100.3858 13.6138
-53.958332 -100.46841 13.64075
-43.376797 -108.56154 13.855932
-43.758003 -108.2685 13.811501
-43.582249 -108.3285 13.849084
-43.455334 -108.40566 13.87
-44.0555 -108.0325 13.8015
-43.87225 -108.1795 13.809
-44.329334 -107.80067 13.854835
-44.152496 -107.9385 13.752501
-44.59557 -107.5979 13.877001
-44.414124 -107.61199 13.893624
-45.026001 -107.273 13.811
-44.869335 -107.40034 13.805667
-45.276001 -107.0425 13.9065
-45.201672 -107.13733 13.872001
-45.594601 -106.829 13.810801
-45.391872 -106.88905 13.858
-45.75 -106.698 13.761
-46.165375 -106.33412 13.899125
-46.380753 -106.15591 13.839001
-46.225754 -106.17225 13.879749
-47.084301 -105.5818 13.8952
-47.322998 -105.43766 13.858333
-47.1992 -105.44341 13.8762
-48.01075 -104.8115 13.88975
-47.976501 -104.92275 13.888
-48.155624 -104.71643 13.865188
-49.053001 -104.001 13.755
-48.906551 -104.1382 13.86425
-49.148785 -103.98142 13.872428
-50.695999 -102.76625 13.91675
-51.018665 -102.52367 13.855
-50.866428 -102.54807 13.872215
-50.740997 -102.686 13.9025
-51.588249 -102.05075 13.90775
-51.793999 -101.751 13.868
-51.673859 -101.88956 13.880858
-52.075001 -101.53467 13.868999
-51.901569 -101.66401 13.914571
-52.3745 -101.29913 13.865438
-52.205498 -101.4286 13.8942
-53.044666 -101.03033 13.84
-52.890186 -101.1479 13.859091
-52.633389 -101.19623 13.848834
-52.497334 -101.198 13.856334
-53.395916 -100.80833 13.886625
-53.193253 -100.93318 13.895187
-53.822746 -100.54124 13.9115
-53.615391 -100.67289 13.878721
-54.118782 -100.36293 13.852429
-53.952999 -100.4595 13.90825
-43.424 -108.52401 14.136001
-43.579189 -108.32231 14.095751
-43.456333 -108.40951 14.132333
-44.350002 -107.77634 14.149333
-44.577499 -107.59133 14.147832
-44.415997 -107.5992 14.125601
-45.272499 -107.03674 14.091249
-45.223 -107.118 14.032
-45.550247 -106.85275 14.11025
-45.390312 -106.87475 14.148251
-46.1674 -106.3195 14.131299
-46.385914 -106.13746 14.151375
-46.222 -106.165 14.145
-47.082397 -105.57981 14.1162
-47.366379 -105.41388 14.109249
-47.184875 -105.43262 14.105
-48.009998 -104.81199 14.155334
-47.972 -104.91367 14.152333
-48.3255 -104.713 14.193
-48.138721 -104.70461 14.1295
-48.905201 -104.12901 14.1338
-49.129108 -103.96778 14.154889
-48.959332 -103.994 14.147667
-50.694 -102.76266 14.139333
-51.012249 -102.51276 14.11675
-50.857563 -102.53468 14.132875
-50.743168 -102.69134 14.139999
-51.59 -102.0555 14.089001
-51.769005 -101.76233 14.144667
-51.665833 -101.88009 14.109334
-52.0485 -101.54325 14.084499
-51.898785 -101.65864 14.080857
-52.328102 -101.32301 14.1259
-52.195457 -101.42937 14.084833
-53.039165 -101.02183 14.148833
-52.881939 -101.15681 14.115124
-52.612915 -101.16883 14.125584
-52.459 -101.216 14.11475
-53.389698 -100.80219 14.142166
-53.189667 -100.92758 14.143584
-53.80603 -100.54127 14.122767
-53.604824 -100.66782 14.139091
-54.105247 -100.3565 14.090876
-53.948624 -100.4535 14.0895
-43.420502 -108.518 14.411
-43.589497 -108.3135 14.341583
-43.456001 -108.41 14.409
-44.347748 -107.773 14.41675
-44.572376 -107.58112 14.397751
-44.400898 -107.6006 14.3837
-45.273666 -107.04 14.358666
-45.223499 -107.1235 14.4015
-45.547668 -106.84701 14.335999
-45.364285 -106.87086 14.377715
-46.154602 -106.3324 14.368001
-46.40731 -106.123 14.390062
-46.216751 -106.1555 14.41025
-47.075836 -105.58591 14.370667
-47.349667 -105.402 14.343499
-47.179165 -105.42117 14.348834
-48.011501 -104.816 14.38025
-47.968002 -104.90825 14.418249
-48.286999 -104.66599 14.393666
-48.118664 -104.69324 14.380668
-48.893501 -104.1465 14.367701
-49.122253 -103.95475 14.390584
-48.954247 -103.985 14.41025
-50.692001 -102.76025 14.40275
-51.007664 -102.505 14.338666
-50.830502 -102.53434 14.365584
-50.7425 -102.692 14.4115
-50.831001 -102.498 14.464
-51.586502 -102.05 14.2515
-51.75375 -101.76325 14.402249
-51.662388 -101.89303 14.352
-52.045666 -101.53933 14.346667
-51.914001 -101.64066 14.352
-52.318279 -101.32192 14.350305
-52.161415 -101.44446 14.351833
-53.033501 -101.013 14.383249
-52.879349 -101.14692 14.351808
-52.610699 -101.14839 14.364801
-52.456585 -101.21192 14.35025
-53.342201 -100.8208 14.3934
-53.132 -100.952 14.406876
-54.094498 -100.552 14.414499
-53.885803 -100.6851 14.4291
-53.605083 -100.65717 14.388
-53.469498 -100.736 14.4665
-54.262001 -100.4425 14.409
-54.1404 -100.381 14.3274
-53.917252 -100.433 14.2675
-43.4165 -108.50875 14.59575
-43.766502 -108.29575 14.578751
-43.615086 -108.30067 14.630772
-43.457001 -108.41483 14.629498
-44.346668 -107.771 14.644333
-44.567837 -107.57242 14.640418
-44.403919 -107.59158 14.639918
-45.271 -107.036 14.584499
-45.541828 -106.83517 14.649834
-45.378998 -106.85164 14.638187
-46.164398 -106.3156 14.622999
-46.382374 -106.11893 14.642313
-46.23867 -106.13234 14.749667
-47.185085 -105.40267 14.609917
-48.012005 -104.81866 14.646333
-47.964336 -104.90034 14.641666
-48.257221 -104.66161 14.650556
-48.083664 -104.68 14.646916
-48.887798 -104.1366 14.627701
-49.100239 -103.94165 14.631929
-48.952003 -103.98 14.5945
-50.695 -102.76801 14.5865
-50.813 -102.5325 14.585167
-50.738503 -102.68475 14.59325
-51.002502 -102.4955 14.5415
-50.877899 -102.49089 14.6598
-51.655582 -101.88147 14.633667
-52.037502 -101.52484 14.654667
-51.887691 -101.64877 14.60462
-52.318748 -101.30781 14.62515
-52.135338 -101.45334 14.597667
-53.028667 -101.005 14.645
-52.87167 -101.1405 14.652168
-52.58733 -101.12183 14.650833
-52.451168 -101.204 14.658999
-53.342041 -100.81155 14.606167
-53.134003 -100.9397 14.618601
-54.138126 -100.57696 14.68425
-53.859142 -100.72607 14.667071
-53.59029 -100.65199 14.619429
-53.466621 -100.73288 14.6885
-54.285999 -100.489 14.657499
-43.412998 -108.502 14.823
-43.754333 -108.26733 14.843667
-43.604797 -108.2907 14.882098
-43.472 -108.36662 14.87525
-44.34325 -107.765 14.912001
-44.562126 -107.56075 14.910875
-44.400375 -107.58537 14.910625
-45.265335 -107.02433 14.850667
-45.539253 -106.82925 14.88925
-45.354 -106.85028 14.886357
-46.156624 -106.31924 14.86225
-46.372578 -106.09415 14.903643
-46.229 -106.13174 14.9055
-47.068001 -105.57175 14.90825
-47.346127 -105.37325 14.872499
-47.167198 -105.39761 14.863501
-48.003662 -104.80167 14.889999
-47.96175 -104.89626 14.907
-48.289501 -104.6395 14.919001
-48.098663 -104.66842 14.905251
-48.8936 -104.10899 14.8729
-49.08654 -103.924 14.906542
-48.947002 -103.97166 14.864334
-50.756668 -102.53967 14.859001
-50.731335 -102.67233 14.855332
-50.885582 -102.48175 14.901667
-51.671715 -101.84186 14.864073
-52.035248 -101.5215 14.891251
-51.90472 -101.62578 14.848833
-51.745499 -101.75 14.847
-52.296593 -101.318 14.8647
-52.131397 -101.4473 14.847
-53.027 -101.004 14.806
-52.864815 -101.12856 14.900124
-52.577374 -101.10437 14.911625
-52.447372 -101.19763 14.900375
-53.2995 -100.8293 14.8735
-53.1036 -100.9503 14.881599
-54.132168 -100.56759 14.905334
-53.867584 -100.71799 14.90625
-53.601501 -100.6175 14.877101
-53.460667 -100.72284 14.922333
-54.278 -100.47633 14.859333
-43.639069 -108.26329 15.141786
-43.463127 -108.37019 15.101437
-43.743999 -108.244 15.174
-44.341 -107.762 15.138667
-44.576416 -107.54808 15.101083
-44.398666 -107.58218 15.134334
-45.262501 -107.0195 15.118999
-45.535 -106.82233 15.156333
-45.363003 -106.84325 15.13875
-46.174332 -106.26167 15.139333
-46.365891 -106.08133 15.142445
-46.2075 -106.1385 15.084
-47.066254 -105.56924 15.092626
-47.328167 -105.36033 15.156833
-47.165497 -105.37569 15.136099
-48.002998 -104.802 15.054
-47.971333 -104.85667 15.103667
-48.284668 -104.631 15.136001
-48.106037 -104.65139 15.1285
-48.882664 -104.10767 15.14275
-49.094334 -103.9142 15.115133
-48.943165 -103.96484 15.135167
-49.854 -103.25 15.239
-51.106998 -102.521 15.218
-50.754753 -102.53725 15.0815
-50.731499 -102.67426 15.07875
-51.140751 -102.33575 15.2325
-50.894203 -102.47469 15.118299
-51.541 -102.142 15.203
-51.361004 -102.138 15.205334
-51.613911 -101.90042 15.149417
-52.029999 -101.51366 15.152333
-51.909142 -101.60986 15.146571
-51.742249 -101.7455 15.108376
-52.310047 -101.29401 15.13295
-52.126499 -101.43933 15.154583
-52.860634 -101.11519 15.134818
-52.578197 -101.0908 15.116
-52.442837 -101.19 15.141999
-53.304874 -100.81569 15.1005
-53.105667 -100.93979 15.090834
-54.117428 -100.57406 15.095858
-53.850002 -100.712 15.110499
-53.585094 -100.62389 15.115201
-53.463943 -100.71278 15.120389
-54.276253 -100.47275 15.08125
-43.657001 -108.253 15.322
-43.45393 -108.37229 15.349999
-43.670422 -108.24426 15.370999
-44.339249 -107.75925 15.40675
-44.607777 -107.52689 15.345363
-44.3965 -107.57938 15.40525
-44.888336 -107.38067 15.475667
-44.6735 -107.41451 15.49
-45.26033 -107.01566 15.344333
-45.531502 -106.817 15.3615
-45.356144 -106.82936 15.386357
-45.195 -106.963 15.4965
-45.771 -106.541 15.454
-45.622498 -106.65183 15.473499
-46.131165 -106.37083 15.403832
-45.943501 -106.37617 15.457833
-46.548 -106.104 15.411
-46.341099 -106.0648 15.3936
-46.165802 -106.1638 15.4052
-46.605667 -105.831 15.444
-46.431999 -105.942 15.4635
-47.058334 -105.52 15.353667
-46.886497 -105.615 15.429501
-46.7355 -105.7155 15.454
-47.331123 -105.3205 15.366125
-47.146599 -105.37447 15.3944
-47.619247 -105.07737 15.387751
-47.396999 -105.17725 15.43775
-47.891666 -104.83456 15.371445
-47.667999 -104.9385 15.438499
-48.311504 -104.54417 15.397667
-48.101002 -104.6246 15.383667
-47.959 -104.707 15.448
-48.826 -104.277 15.318
-48.595917 -104.33734 15.388417
-48.422333 -104.39333 15.4175
-48.248497 -104.4665 15.416
-48.83075 -104.0965 15.399876
-48.699497 -104.16016 15.405334
-49.317497 -103.75775 15.3645
-49.118416 -103.84905 15.372251
-48.959 -103.93867 15.421333
-49.576 -103.54333 15.385001
-49.388641 -103.63364 15.369928
-49.194 -103.732 15.363
-49.793999 -103.3594 15.351201
-49.661667 -103.41559 15.363335
-49.847 -103.23725 15.41875
-50.754002 -102.537 15.263
-50.644363 -102.6196 15.354682
-51.056087 -102.29501 15.357583
-50.895248 -102.41708 15.367917
-51.324074 -102.09229 15.359713
-51.182251 -102.1875 15.36775
-51.590065 -101.8605 15.379715
-51.427002 -101.974 15.314
-52.025497 -101.506 15.41475
-51.911255 -101.59581 15.399813
-51.741779 -101.73661 15.339055
-52.313335 -101.28451 15.383667
-52.162247 -101.39984 15.385362
-52.851555 -101.11511 15.392445
-52.565582 -101.08508 15.366834
-52.437252 -101.18125 15.403875
-53.326248 -100.79475 15.325749
-53.134853 -100.91145 15.363928
-54.136559 -100.54967 15.349777
-53.880314 -100.69499 15.367937
-53.590797 -100.6 15.3682
-53.454166 -100.71333 15.3535
-54.270336 -100.46433 15.344334
-43.317001 -108.507 15.542
-43.414997 -108.38838 15.621626
-43.245499 -108.448 15.615
-43.807789 -108.0425 15.623215
-43.638 -108.19022 15.622888
-44.091873 -107.83281 15.60175
-43.932602 -107.9377 15.634
-44.370003 -107.58209 15.603699
-44.224335 -107.70767 15.603
-44.76725 -107.30075 15.6905
-44.638645 -107.37006 15.621714
-44.48225 -107.48625 15.646
-45.066723 -107.05212 15.604389
-44.893002 -107.18221 15.6015
-45.322498 -106.82117 15.628166
-45.180832 -106.93082 15.657001
-45.757 -106.51 15.613
-45.597122 -106.60825 15.589375
-45.444 -106.72038 15.618375
-46.057503 -106.3075 15.58
-45.908211 -106.3548 15.624416
-45.743 -106.47749 15.610001
-46.311901 -106.03621 15.6194
-46.119919 -106.18221 15.642208
-46.607147 -105.8162 15.5744
-46.424248 -105.95087 15.636375
-46.856739 -105.60757 15.602119
-46.733498 -105.714 15.658501
-47.255001 -105.298 15.561
-47.151711 -105.36686 15.649287
-46.9865 -105.495 15.63
-47.583752 -105.07738 15.561375
-47.388748 -105.19333 15.624084
-47.829166 -104.83975 15.601167
-47.674 -104.95325 15.64575
-48.13538 -104.5844 15.621691
-47.933998 -104.7475 15.650001
-48.549 -104.2605 15.5915
-48.359886 -104.40601 15.647722
-48.833 -104.03917 15.590166
-48.681129 -104.15575 15.620938
-49.130085 -103.80317 15.610168
-48.9492 -103.939 15.5776
-49.360687 -103.61612 15.597687
-49.201 -103.746 15.531
-49.776997 -103.289 15.651
-49.646561 -103.38598 15.637751
-49.842667 -103.23 15.642667
-50.655407 -102.58601 15.639135
-50.460663 -102.741 15.654667
-51.032997 -102.29325 15.598125
-50.888416 -102.40497 15.599749
-51.304794 -102.0743 15.589458
-51.165497 -102.18471 15.6253
-51.582779 -101.85316 15.632168
-51.447002 -101.9585 15.649501
-52.022499 -101.5015 15.5965
-51.870724 -101.62106 15.661222
-51.724667 -101.74334 15.549666
-52.302834 -101.28158 15.618584
-52.139713 -101.40696 15.6605
-52.858952 -101.09832 15.629135
-52.561501 -101.07837 15.5955
-52.42767 -101.1825 15.638138
-53.346001 -100.77075 15.6125
-53.158504 -100.88592 15.630072
-54.120003 -100.55501 15.6004
-53.848469 -100.69075 15.612656
-53.586998 -100.5938 15.626101
-53.448872 -100.70575 15.615625
-54.265999 -100.459 15.6475
-54.233002 -100.4775 15.67
-43.1222 -108.5506 15.875501
-43.417946 -108.3174 15.844166
-43.247665 -108.45466 15.863167
-43.79417 -108.0235 15.887
-43.631905 -108.14665 15.9251
-44.052696 -107.821 15.8418
-43.924797 -107.9202 15.8718
-44.365566 -107.56921 15.8595
-44.191498 -107.7057 15.843199
-44.634178 -107.35603 15.879929
-44.476501 -107.475 15.914
-45.035503 -107.03934 15.837001
-44.882778 -107.15966 15.857444
-45.3144 -106.8176 15.8696
-45.159401 -106.9436 15.891299
-45.59013 -106.59363 15.861875
-45.4482 -106.71111 15.8837
-45.893501 -106.35747 15.857955
-45.742001 -106.47567 15.856
-46.293999 -106.0385 15.882299
-46.121368 -106.17287 15.881
-46.575916 -105.81441 15.851333
-46.432697 -105.9259 15.8806
-46.846554 -105.60188 15.844362
-46.6525 -105.7485 15.888
-47.135098 -105.3736 15.874524
-46.984665 -105.49216 15.848332
-47.536835 -105.04767 15.849334
-47.374317 -105.17768 15.873062
-47.831749 -104.81213 15.865125
-47.668167 -104.94167 15.849
-48.148643 -104.56626 15.853286
-47.962002 -104.71833 15.859
-48.543999 -104.251 15.752501
-48.406937 -104.35569 15.8875
-48.2495 -104.4725 15.9505
-48.800335 -104.04777 15.855334
-48.644978 -104.16753 15.865286
-49.115002 -103.80158 15.846166
-48.940624 -103.93626 15.864124
-49.355129 -103.60596 15.844917
-49.7715 -103.27925 15.915251
-49.616814 -103.39564 15.878072
-49.8405 -103.226 15.90625
-50.318497 -102.842 15.9055
-50.632 -102.59506 15.879889
-50.446167 -102.74233 15.842999
-51.055332 -102.258 15.842667
-50.913288 -102.37079 15.868286
-51.316666 -102.05233 15.846667
-51.185062 -102.15512 15.856064
-51.622868 -101.80789 15.862529
-51.405396 -101.9791 15.862801
-51.855286 -101.62254 15.91468
-52.2715 -101.29375 15.883751
-52.136169 -101.39988 15.911334
-52.839832 -101.11561 15.892722
-52.558121 -101.0735 15.8375
-52.398003 -101.19485 15.891856
-53.32225 -100.77026 15.860125
-53.125168 -100.89628 15.857624
-54.093582 -100.55908 15.847583
-53.852802 -100.67176 15.851168
-53.5714 -100.6028 15.865
-53.444752 -100.69817 15.843666
-43.110249 -108.54416 16.141417
-43.414917 -108.31058 16.115334
-43.243378 -108.446 16.089874
-43.639183 -108.13193 16.131908
-43.473999 -108.246 16.245001
-44.052399 -107.80061 16.136299
-43.894249 -107.92519 16.104376
-44.363556 -107.55517 16.122696
-44.167957 -107.70779 16.124334
-44.625 -107.34625 16.133375
-44.474335 -107.471 16.135168
-45.007168 -107.04467 16.150167
-44.88485 -107.14494 16.086102
-45.334999 -106.785 16.078501
-45.160622 -106.92487 16.138813
-45.600834 -106.56977 16.135221
-45.437332 -106.70892 16.1285
-45.902699 -106.33311 16.133051
-46.290203 -106.03111 16.111797
-46.100548 -106.18044 16.122549
-46.553627 -105.81462 16.096624
-46.423767 -105.91909 16.1203
-46.887199 -105.55031 16.138599
-46.707802 -105.69029 16.1376
-47.13242 -105.36101 16.135166
-46.977001 -105.47666 16.161333
-47.531998 -105.03963 16.11475
-47.360497 -105.17657 16.107786
-47.820835 -104.8075 16.101002
-47.66 -104.93694 16.071945
-48.099792 -104.59321 16.092501
-47.958252 -104.711 16.084
-48.420502 -104.33293 16.112215
-48.24345 -104.46984 16.145166
-48.765625 -104.06013 16.09
-48.580799 -104.2076 16.113701
-49.086502 -103.81175 16.12875
-48.929001 -103.93516 16.10375
-49.355904 -103.59141 16.144901
-49.201752 -103.7085 16.1705
-49.764999 -103.268 16.136332
-49.60603 -103.39266 16.122639
-49.835499 -103.2175 16.088501
-50.311501 -102.82837 16.08625
-50.648388 -102.56979 16.130165
-50.440334 -102.73191 16.153667
-50.902138 -102.36816 16.14164
-51.309998 -102.0405 16.108749
-51.143353 -102.17381 16.1411
-51.614433 -101.8035 16.128067
-51.419575 -101.95543 16.150713
-51.8643 -101.6067 16.119501
-52.26833 -101.28967 16.145998
-52.130478 -101.39488 16.139444
-52.847 -101.10217 16.103001
-52.55125 -101.06226 16.119375
-52.394333 -101.18842 16.091499
-53.308205 -100.77141 16.166201
-53.130974 -100.88194 16.15189
-53.62793 -100.61115 16.129713
-53.438091 -100.68792 16.153498
-43.106125 -108.53663 16.41375
-43.363426 -108.34014 16.352858
-43.226166 -108.44382 16.358002
-43.653725 -108.105 16.394333
-43.472748 -108.245 16.390751
-44.034203 -107.80289 16.3605
-43.890759 -107.91867 16.351915
-44.368626 -107.5415 16.358
-44.2015 -107.6709 16.3661
-44.60725 -107.35105 16.389389
-44.469501 -107.461 16.408001
-45.001999 -107.035 16.329
-44.897141 -107.12211 16.350752
-44.741669 -107.24467 16.363333
-45.328556 -106.78256 16.367001
-45.140354 -106.92582 16.386168
-45.596497 -106.56216 16.409498
-45.431168 -106.69534 16.423998
-45.85878 -106.35625 16.357073
-46.256001 -106.0355 16.408001
-46.121109 -106.14912 16.367111
-46.549999 -105.80733 16.342167
-46.392403 -105.9338 16.378601
-46.849079 -105.56742 16.370806
-46.667751 -105.71592 16.339832
-47.137085 -105.34492 16.373083
-46.973 -105.46976 16.386501
-47.559666 -105.00767 16.343
-47.402725 -105.12846 16.358274
-47.801331 -104.81368 16.345499
-47.659504 -104.92625 16.345083
-48.081722 -104.59495 16.353556
-47.936497 -104.71175 16.3255
-48.381035 -104.35184 16.372704
-48.232002 -104.46734 16.456001
-48.761333 -104.053 16.354166
-48.598835 -104.1817 16.383638
-49.058746 -103.82375 16.389999
-48.924782 -103.92772 16.345333
-49.376717 -103.56222 16.369715
-49.187134 -103.71284 16.363468
-49.761002 -103.26075 16.401749
-49.613136 -103.3766 16.379635
-49.832001 -103.21217 16.359001
-50.307495 -102.82284 16.350666
-50.575497 -102.61674 16.370251
-50.437752 -102.72737 16.389874
-50.885162 -102.37612 16.362751
-51.308167 -102.03833 16.345167
-51.145142 -102.16925 16.394751
-51.60133 -101.80674 16.371933
-51.443287 -101.92907 16.382572
-51.834496 -101.62026 16.378849
-52.262001 -101.27875 16.407249
-52.126083 -101.388 16.407082
-52.855164 -101.10534 16.342916
-52.627697 -101.10251 16.365002
-52.390442 -101.18245 16.354002
-53.261749 -100.789 16.4035
-53.127235 -100.87327 16.395
-52.973499 -100.97083 16.3435
-53.605579 -100.602 16.355209
-53.39975 -100.70325 16.394665
-43.096001 -108.53471 16.624899
-43.357189 -108.32569 16.636646
-43.19725 -108.45375 16.586
-43.641998 -108.10265 16.630272
-44.045101 -107.7858 16.639902
-43.871635 -107.92165 16.614864
-44.3615 -107.53467 16.589834
-44.177467 -107.67793 16.634134
-44.605598 -107.33999 16.6243
-44.4305 -107.47363 16.63625
-44.895191 -107.10953 16.633167
-44.736748 -107.23575 16.589251
-45.262329 -106.82434 16.642334
-45.131111 -106.923 16.648779
-45.603428 -106.55093 16.603357
-45.410812 -106.70225 16.593563
-45.877712 -106.32893 16.633499
-45.73867 -106.44183 16.607668
-46.251747 -106.02775 16.592499
-46.108284 -106.15015 16.604643
-46.546375 -105.802 16.608875
-46.419201 -105.89475 16.619801
-46.845417 -105.55149 16.648251
-46.686298 -105.68501 16.6297
-47.098072 -105.35487 16.645144
-46.94725 -105.46075 16.66925
-47.556999 -105.003 16.507
-47.377144 -105.13257 16.591999
-47.249664 -105.22867 16.641666
-47.804626 -104.805 16.548626
-47.638645 -104.92513 16.625643
-48.304001 -104.508 16.725
-48.086559 -104.58456 16.651499
-47.907001 -104.69849 16.629831
-48.543499 -104.257 16.653999
-48.388336 -104.36245 16.616446
-48.218498 -104.45375 16.605751
-48.806999 -104.06 16.646999
-48.650333 -104.14277 16.589594
-49.102402 -103.8082 16.6616
-48.921162 -103.92217 16.612501
-49.540001 -103.534 16.737
-49.373444 -103.61878 16.651335
-49.204502 -103.69917 16.565498
-49.761002 -103.308 16.63225
-49.619751 -103.39893 16.632082
-49.812374 -103.22176 16.629499
-50.350567 -102.84499 16.631033
-50.757999 -102.5535 16.6915
-50.617283 -102.63064 16.632
-50.451 -102.669 16.566999
-51.089672 -102.32749 16.695333
-50.862053 -102.39256 16.6315
-51.363071 -102.08864 16.637072
-51.155003 -102.2052 16.617201
-51.605286 -101.8855 16.647501
-51.452499 -101.8885 16.5425
-51.873669 -101.57642 16.592085
-51.715378 -101.70213 16.593624
-52.259499 -101.2755 16.5895
-52.096207 -101.40401 16.587126
-52.851055 -101.11983 16.622723
-52.616352 -101.0828 16.637751
-52.385254 -101.17408 16.602499
-53.257168 -100.78217 16.638666
-53.108967 -100.87281 16.646416
-52.957375 -100.97188 16.60825
-53.584995 -100.57758 16.648085
-53.394669 -100.69534 16.643557
-43.1366 -108.5547 16.906101
-43.338001 -108.37687 16.870428
-43.175751 -108.453 16.814751
-43.8675 -108.0305 16.952499
-43.629951 -108.13678 16.888952
-43.467499 -108.23474 16.886499
-44.077248 -107.83524 16.88125
-43.887062 -107.89969 16.826313
-44.319599 -107.5874 16.8678
-44.17075 -107.68813 16.835875
-44.803501 -107.2945 16.9095
-44.640003 -107.38564 16.888214
-44.431801 -107.45819 16.878201
-45.099667 -107.05866 16.941999
-44.895496 -107.18009 16.866583
-44.734001 -107.231 16.774
-45.298328 -106.84333 16.886667
-45.170502 -106.91531 16.855799
-44.986 -107 16.819
-45.768997 -106.5465 16.897499
-45.611252 -106.63442 16.886499
-45.422253 -106.71392 16.8645
-46.039169 -106.31133 16.857
-45.876999 -106.39741 16.841249
-45.679501 -106.4445 16.764999
-46.37825 -106.0235 16.904749
-46.192554 -106.1091 16.856331
-46.752998 -105.766 16.900999
-46.632 -105.8573 16.875301
-46.444 -105.95113 16.845249
-47.025253 -105.54025 16.873249
-46.878498 -105.66067 16.874502
-46.558998 -105.74 16.75
-47.349915 -105.27542 16.86775
-47.159718 -105.35207 16.900785
-47.59383 -105.08433 16.805334
-47.463501 -105.1915 16.8155
-47.893387 -104.84995 16.821999
-48.3125 -104.527 16.910999
-48.127884 -104.59061 16.879723
-48.58075 -104.29558 16.755333
-48.4095 -104.4455 16.804501
-48.881996 -104.06674 16.823999
-48.721001 -104.19775 16.811249
-49.15731 -103.82925 16.85725
-48.955582 -103.90975 16.842665
-49.380501 -103.66949 16.754
-49.815166 -103.31183 16.919834
-49.747002 -103.418 16.805
-49.848 -103.249 16.871
-50.544498 -102.762 16.753
-50.415001 -102.8605 16.758999
-50.757248 -102.5545 16.916
-50.702751 -102.62801 16.904999
-51.031502 -102.38025 16.887751
-50.874855 -102.40578 16.875715
-51.626301 -101.8936 16.868301
-51.870449 -101.57189 16.855335
-51.710331 -101.69474 16.859917
-52.254169 -101.26716 16.859833
-52.105 -101.38442 16.850973
-52 -101.466 16.929001
-52.854168 -101.11866 16.844666
-52.648033 -101.07903 16.866917
-52.380833 -101.16744 16.842611
-53.256001 -100.782 16.868999
-53.117249 -100.85931 16.906
-52.957386 -100.96423 16.839388
-53.590248 -100.5643 16.90535
-53.390827 -100.68983 16.906834
-54.036835 -100.288 16.854166
-53.866219 -100.39365 16.850668
-53.729336 -100.47567 16.863333
-54.166798 -100.214 16.891399
-43.402172 -108.40232 17.060835
-43.872002 -108.044 17.0385
-43.63525 -108.16801 17.130875
-43.469334 -108.241 17.157333
-44.10733 -107.85467 17.01
-43.973 -107.961 17.018
-44.353001 -107.636 17.0865
-44.236 -107.748 17.017
-44.595333 -107.44708 17.151417
-44.42337 -107.461 17.090124
-45.074501 -107.104 17.006001
-45.286999 -106.88733 17.149
-45.231998 -106.96233 17.154333
-45.571335 -106.70901 17.124666
-45.437 -106.73555 17.116848
-46.374123 -106.01524 17.088751
-46.20116 -106.13058 17.086332
-46.489166 -105.98233 17.136499
-47.074501 -105.50275 17.101501
-47.367874 -105.26912 17.092249
-47.151627 -105.35357 17.131187
-47.984501 -104.77475 17.118999
-48.311001 -104.52533 17.136
-48.12532 -104.58774 17.145954
-48.897167 -104.04984 17.152334
-49.132252 -103.82474 17.144686
-48.957298 -103.8968 17.138199
-50.756001 -102.553 17.139334
-50.697998 -102.619 17.127668
-51.026333 -102.37234 17.150999
-50.866875 -102.39462 17.112375
-51.634804 -101.8794 17.123199
-51.858227 -101.5685 17.1005
-51.695499 -101.69566 17.071501
-52.250999 -101.262 17.035
-52.135204 -101.34837 17.1061
-51.997002 -101.46175 17.112
-52.834099 -101.0984 17.140301
-52.61908 -101.03692 17.150833
-52.397633 -101.13936 17.159729
-53.251999 -100.776 17.028999
-53.132629 -100.84404 17.105234
-52.94289 -100.95844 17.146166
-53.6105 -100.54173 17.139526
-53.377495 -100.6875 17.128563
-54.065247 -100.25925 17.1175
-53.863903 -100.3867 17.10914
-53.748333 -100.45333 17.246
-54.170494 -100.1886 17.138
-43.431335 -108.37234 17.349665
-43.603291 -108.161 17.381643
-43.470501 -108.245 17.387501
-44.367001 -107.61566 17.352999
-44.588997 -107.43401 17.404625
-44.419331 -107.453 17.358334
-45.2845 -106.8835 17.417
-45.237 -106.977 17.320999
-45.566334 -106.69967 17.370667
-45.387142 -106.72136 17.381071
-46.388 -106.0035 17.335751
-46.197891 -106.1251 17.353889
-46.402 -105.97949 17.400749
-47.353127 -105.26163 17.338375
-47.153149 -105.34389 17.3757
-47.401001 -105.248 17.357
-47.981998 -104.77167 17.345333
-48.307251 -104.52025 17.40325
-48.111168 -104.57856 17.377113
-48.89275 -104.042 17.389999
-48.949596 -103.9192 17.3605
-50.752747 -102.54851 17.404251
-50.722 -102.67 17.3395
-51.0205 -102.36275 17.415249
-50.853001 -102.38988 17.368876
-51.62825 -101.88425 17.359875
-51.84037 -101.57112 17.340687
-51.668335 -101.70367 17.362333
-52.150116 -101.32738 17.351053
-51.980499 -101.46067 17.349167
-52.8395 -101.0786 17.359798
-52.627502 -101.01 17.390335
-52.39558 -101.13136 17.395874
-53.142567 -100.8232 17.366217
-52.942169 -100.94867 17.396835
-52.556 -100.997 17.472
-53.600334 -100.53704 17.405876
-53.390358 -100.6685 17.3895
-54.061001 -100.2515 17.382
-53.894375 -100.35656 17.356062
-54.337723 -100.07864 17.378639
-54.138336 -100.20291 17.342583
-54.623501 -99.897003 17.388502
-54.466499 -99.995255 17.397999
-55.13615 -99.580261 17.359982
-54.938335 -99.697998 17.395332
-43.4547 -108.29879 17.643
-43.599331 -108.15137 17.624134
-44.36525 -107.61349 17.58025
-44.585003 -107.42584 17.652166
-44.417622 -107.45025 17.585751
-45.282669 -106.88 17.643667
-45.561497 -106.691 17.6315
-45.40271 -106.71493 17.613142
-46.195999 -106.12284 17.601667
-46.377499 -105.97644 17.602688
-46.236 -106 17.514999
-47.359001 -105.2525 17.521
-47.11911 -105.38739 17.619165
-47.355499 -105.24525 17.645
-47.223 -105.243 17.646
-47.975502 -104.75951 17.5485
-48.303333 -104.51367 17.628
-48.106548 -104.57961 17.631399
-47.971001 -104.749 17.671
-48.888 -104.035 17.655333
-48.950668 -103.904 17.654501
-50.751499 -102.547 17.588501
-51.016998 -102.35651 17.597
-50.847252 -102.37988 17.632999
-51.64967 -101.84467 17.640333
-51.807339 -101.58746 17.652542
-51.667004 -101.70267 17.605999
-52.113216 -101.34321 17.628214
-51.949665 -101.47089 17.653
-52.821667 -101.06217 17.648167
-52.388145 -101.12635 17.656359
-52.241249 -101.24675 17.581249
-53.115189 -100.83257 17.595251
-52.9375 -100.94183 17.639666
-52.600834 -100.99149 17.631834
-53.542053 -100.56139 17.629499
-53.375835 -100.66691 17.594
-53.236 -100.75 17.677
-53.874561 -100.34063 17.609375
-53.673779 -100.47222 17.597891
-54.324329 -100.06417 17.590668
-54.132416 -100.17641 17.603918
-54.453003 -99.971497 17.6175
-55.127666 -99.571831 17.587334
-43.575798 -108.145 17.8864
-44.363667 -107.612 17.851334
-44.57962 -107.41537 17.899752
-44.415165 -107.4465 17.854834
-45.280998 -106.8795 17.913002
-45.5555 -106.679 17.9055
-45.373249 -106.70451 17.860626
-47.113003 -105.36915 17.875072
-47.351501 -105.23867 17.849333
-47.216999 -105.23067 17.848999
-47.973003 -104.756 17.835999
-48.258945 -104.51666 17.862001
-48.067356 -104.57485 17.866144
-48.884003 -104.0285 17.880251
-49.110748 -103.78526 17.880999
-48.945873 -103.89662 17.8995
-50.7505 -102.547 17.751999
-50.746002 -102.53951 17.913
-51.011829 -102.349 17.868668
-50.83736 -102.36335 17.892141
-51.643002 -101.832 17.801001
-51.665001 -101.7 17.767
-52.112999 -101.34399 17.755501
-43.451099 -108.2943 18.1418
-43.763668 -108.10534 18.133999
-43.634899 -108.1287 18.120998
-44.360001 -107.606 18.12075
-44.574329 -107.40533 18.147501
-44.414375 -107.44675 18.0835
-45.273666 -106.86367 18.138
-45.553001 -106.67426 18.092251
-45.378586 -106.69259 18.105499
-47.094429 -105.38686 18.122
-47.319 -105.21706 18.1145
-47.976997 -104.766 18.042999
-48.256001 -104.503 18.045
-48.033501 -104.6158 18.132599
-48.260086 -104.49758 18.180668
-48.113331 -104.49267 18.146334
-48.881668 -104.02533 18.147333
-49.114498 -103.77144 18.132563
-48.940502 -103.88717 18.143835
-50.7435 -102.53616 18.131166
-50.846752 -102.35101 18.073332
-51.547001 -101.814 18.221001
-51.480999 -101.868 18.247999
-52.015999 -101.506 18.16
-51.849503 -101.58425 18.179375
-51.636497 -101.7355 18.189499
-52.332001 -101.254 18.23
-52.179298 -101.3199 18.1376
-52.521999 -101.0605 18.087749
-52.385002 -101.16312 18.129999
-53.513 -100.581 18.198999
-53.377499 -100.588 18.174999
-53.143604 -100.60799 18.214199
-53.845749 -100.3235 18.122002
-53.611748 -100.46825 18.171501
-53.280998 -100.487 18.233
-43.417004 -108.346 18.345335
-43.758247 -108.094 18.403751
-43.592377 -108.11308 18.393917
-43.468002 -108.249 18.387501
-44.358669 -107.60433 18.348665
-44.567875 -107.39188 18.395
-44.41267 -107.44534 18.353167
-45.271751 -106.863 18.408501
-45.548664 -106.66734 18.359667
-45.374111 -106.68368 18.345665
-47.112499 -105.34414 18.353285
-47.348248 -105.2115 18.319
-47.24725 -105.20525 18.380501
-48.036797 -104.5864 18.367599
-47.951 -104.711 18.322001
-48.176414 -104.48878 18.407293
-48.834251 -104.0755 18.456375
-49.328499 -103.7585 18.480499
-49.094631 -103.76377 18.382267
-48.939003 -103.88612 18.411125
-49.538498 -103.635 18.475
-49.408001 -103.644 18.475
-49.6325 -103.473 18.466999
-51.32225 -102.05888 18.392876
-51.12833 -102.165 18.364834
-51.577374 -101.85776 18.360624
-51.409668 -101.93118 18.332668
-51.761002 -101.715 18.252001
-52.256668 -101.28268 18.341665
-52.356003 -101.218 18.327751
-52.684666 -100.94434 18.326666
-53.880001 -100.27 18.466
-43.385834 -108.33633 18.659668
-43.81675 -108.07975 18.65
-43.594612 -108.0964 18.635778
-43.465668 -108.245 18.658667
-43.943501 -107.797 18.741501
-44.324505 -107.59983 18.6395
-44.095749 -107.68075 18.733749
-44.594746 -107.35249 18.63475
-44.410873 -107.44212 18.602749
-45.057499 -107.0785 18.661999
-44.8344 -107.1098 18.698801
-44.720001 -107.212 18.679001
-45.2705 -106.861 18.594999
-45.148666 -106.88017 18.686666
-44.9245 -106.9695 18.720501
-45.543167 -106.62317 18.602167
-45.363415 -106.67859 18.601749
-45.853668 -106.32717 18.647333
-45.695251 -106.3965 18.698999
-46.117249 -106.0915 18.666916
-45.895752 -106.20975 18.705
-46.39333 -105.88284 18.640778
-46.243668 -105.95767 18.555668
-46.804001 -105.515 18.635
-46.64743 -105.6545 18.683285
-47.0774 -105.34391 18.6332
-46.916748 -105.45563 18.674875
-47.345905 -105.13261 18.63228
-47.177334 -105.21533 18.642
-47.796249 -104.75775 18.6005
-47.630783 -104.89221 18.620001
-47.452999 -104.98 18.625
-48.033875 -104.55425 18.626875
-47.907997 -104.64564 18.664499
-48.636002 -104.271 18.505001
-48.362614 -104.34417 18.629946
-48.161293 -104.46429 18.612959
-48.754501 -104.0565 18.653
-48.605339 -104.12988 18.650692
-48.465 -104.189 18.651501
-49.1465 -103.752 18.633999
-48.868668 -103.88867 18.637335
-48.75 -103.954 18.556999
-49.332623 -103.55663 18.607374
-49.137833 -103.65784 18.619001
-49.585075 -103.33601 18.599356
-49.425697 -103.43831 18.579599
-49.810699 -103.13261 18.673801
-49.684002 -103.24 18.649332
-51.366501 -102.08 18.542
-51.614746 -101.91225 18.542
-51.431499 -101.9485 18.553501
-52.566002 -101.026 18.698
-52.830997 -100.83334 18.677332
-52.664001 -100.937 18.679501
-53.304001 -100.534 18.65
-53.162498 -100.59275 18.617874
-52.960999 -100.74 18.656
-53.80875 -100.33825 18.547749
-53.6525 -100.43 18.577499
-53.319 -100.48 18.563
-55.101749 -99.569992 18.702875
-43.363876 -108.26587 18.849375
-43.181934 -108.39121 18.861858
-43.604565 -108.06656 18.890312
-43.412251 -108.1945 18.878376
-43.863564 -107.87369 18.844437
-43.716499 -107.9435 18.855251
-44.301003 -107.58099 18.842499
-44.124207 -107.63361 18.890791
-43.966499 -107.7485 18.943001
-44.549248 -107.30325 18.85425
-44.399109 -107.41494 18.855362
-44.857929 -107.08028 18.898071
-44.666828 -107.20133 18.848167
-45.255001 -106.827 18.796
-45.1045 -106.87865 18.889784
-44.963001 -106.9635 18.9275
-45.57 -106.522 18.761
-45.362442 -106.64839 18.844442
-45.849361 -106.29072 18.86339
-45.626789 -106.44678 18.874645
-46.075928 -106.09422 18.873644
-45.946999 -106.187 18.902
-46.38023 -105.86129 18.865368
-46.796169 -105.5325 18.865999
-46.629059 -105.65133 18.891584
-47.049999 -105.31525 18.90325
-46.923401 -105.4128 18.883801
-47.308937 -105.10526 18.899687
-47.163586 -105.22058 18.840918
-47.752998 -104.76025 18.845749
-47.607777 -104.87749 18.884779
-47.456333 -104.98899 18.874334
-48.041252 -104.525 18.890751
-47.903927 -104.63636 18.888998
-48.309669 -104.31564 18.864368
-48.134445 -104.45101 18.920446
-48.612045 -104.07312 18.896542
-48.463749 -104.18775 18.89925
-48.861443 -103.87722 18.894279
-49.304001 -103.5245 18.82
-49.138813 -103.65375 18.872623
-49.558601 -103.322 18.850201
-49.406498 -103.44286 18.851213
-49.831837 -103.10883 18.874498
-49.693501 -103.21587 18.889542
-51.326 -102.092 18.952999
-51.577499 -101.881 18.9305
-51.400627 -101.93163 18.938751
-52.536667 -101.08034 18.758667
-53.160999 -100.775 18.983
-53.818001 -100.56551 18.9205
-53.579002 -100.5305 18.954
-53.397335 -100.63134 18.945833
-53.637001 -100.489 18.993
-55.133862 -99.557556 18.867529
-54.900166 -99.686989 18.846167
-55.339779 -99.392113 18.889221
-43.3395 -108.2565 19.074501
-43.15493 -108.38921 19.111071
-43.560284 -108.07043 19.104786
-43.38475 -108.21 19.151375
-43.890667 -107.81441 19.127417
-43.725666 -107.93939 19.126501
-44.136669 -107.61161 19.128944
-43.962502 -107.742 19.1915
-44.557999 -107.2795 19.131166
-44.410564 -107.3959 19.128765
-44.815197 -107.0686 19.173901
-44.677002 -107.1841 19.094198
-45.101711 -106.84593 19.111073
-44.938 -106.97266 19.136999
-45.382118 -106.62341 19.109905
-45.243999 -106.734 19.160666
-45.850502 -106.251 19.050999
-45.6661 -106.3973 19.130951
-46.086437 -106.06644 19.135187
-45.898338 -106.21046 19.136333
-46.399998 -105.81899 19.141001
-46.242889 -105.93823 19.150499
-46.758003 -105.53159 19.091499
-46.598499 -105.65844 19.123356
-47.063751 -105.299 19.085499
-46.925602 -105.40055 19.08115
-47.306499 -105.10242 19.146666
-47.158833 -105.21225 19.156668
-47.622292 -104.84798 19.104334
-47.452 -104.98116 19.135
-48.035999 -104.51733 19.157333
-47.908878 -104.62181 19.122313
-47.746498 -104.748 19.132999
-48.310875 -104.29575 19.161251
-48.158669 -104.42488 19.0825
-48.601727 -104.06547 19.142473
-48.442581 -104.19108 19.14625
-48.901531 -103.83291 19.116833
-48.748001 -103.9525 19.091499
-49.138706 -103.64379 19.088083
-49.553375 -103.31363 19.095501
-49.408333 -103.43143 19.090136
-49.815502 -103.10966 19.093168
-49.675499 -103.21687 19.151501
-51.356247 -102.06425 19.091249
-51.616756 -101.84659 19.124832
-51.434498 -101.89866 19.114836
-52.948002 -101.063 19.052
-53.084 -100.80466 19.073
-52.958 -100.9 19.099001
-52.625 -100.955 19.09
-53.848 -100.531 19.066999
-53.655502 -100.5135 19.039001
-53.422165 -100.62 19.028666
-53.669998 -100.466 19.0735
-54.900501 -99.688751 19.00975
-55.326336 -99.421997 19.024666
-43.299999 -108.258 19.485001
-43.160004 -108.37301 19.347445
-43.598835 -108.03159 19.363665
-43.411766 -108.17764 19.368967
-43.819313 -107.85176 19.351439
-43.696667 -107.95066 19.358999
-44.161716 -107.57882 19.369463
-43.959999 -107.737 19.42075
-44.554501 -107.27451 19.408001
-44.368164 -107.41911 19.371023
-44.783401 -107.07931 19.400202
-44.657169 -107.1825 19.344
-45.091103 -106.83891 19.382133
-44.929199 -106.9668 19.386002
-45.365372 -106.62857 19.357418
-45.218334 -106.74366 19.362665
-45.834335 -106.25066 19.354668
-45.635048 -106.41045 19.374851
-46.063786 -106.07064 19.379358
-45.915379 -106.18988 19.382626
-46.37117 -105.82925 19.365583
-46.238419 -105.93509 19.393917
-46.655018 -105.602 19.355612
-46.470501 -105.7455 19.421499
-47.059666 -105.29166 19.352667
-46.871056 -105.4296 19.360056
-47.301689 -105.09287 19.413874
-47.155495 -105.20712 19.390125
-47.577499 -104.8705 19.362389
-47.447502 -104.974 19.409
-48.031502 -104.50925 19.382
-47.884106 -104.62817 19.384251
-47.738998 -104.736 19.459999
-48.254623 -104.33425 19.3895
-48.130665 -104.43525 19.358917
-48.582874 -104.06763 19.412876
-48.406872 -104.208 19.397249
-48.881535 -103.83594 19.373766
-48.710999 -103.96917 19.370501
-49.261002 -103.533 19.431
-49.113819 -103.65273 19.360954
-49.563427 -103.29671 19.366642
-49.408161 -103.41782 19.340166
-49.678749 -103.20525 19.377499
-51.383999 -102.03 19.268
-51.410336 -101.91067 19.404665
-52.921001 -101.013 19.371
-52.353748 -101.10525 19.393251
-53.085594 -100.8098 19.368
-52.945499 -100.8795 19.382
-52.574337 -100.95434 19.405167
-53.854 -100.546 19.482
-53.584 -100.544 19.487
-53.360359 -100.64907 19.389572
-53.222 -100.735 19.308001
-53.604336 -100.481 19.358334
-55.0784 -99.571396 19.3909
-54.877571 -99.677284 19.364574
