# .PCD v0.7 - Point Cloud Data file format
VERSION 0.7
FIELDS x y z
SIZE 4 4 4
TYPE F F F
COUNT 1 1 1
WIDTH 79
HEIGHT 1
VIEWPOINT -18.2321 96.2205 -1.35163 -0.354149 -0.00701479 0.0211809 0.934923
POINTS 79
DATA ascii
-40.809536 16.408895 10.18914
-40.68121 16.383709 10.245625
-40.764145 16.548857 10.167143
-40.688564 16.646774 10.149352
-40.422321 16.690475 10.125792
-40.591728 16.950592 10.132364
-40.41272 16.800253 10.155822
-40.5504 17.089733 10.16306
-40.425739 17.165611 10.214848
-40.373051 17.389627 10.181434
-40.222111 17.445665 10.243444
-40.339359 17.578444 10.139462
-40.570648 16.361685 10.361881
-40.494625 16.490499 10.405125
-40.529457 16.581015 10.289403
-40.433315 16.655188 10.37823
-40.369011 16.876951 10.362007
-40.295399 17.061382 10.349165
-40.221134 17.195538 10.416049
-40.265709 17.301876 10.256312
-40.146809 17.380634 10.399633
-40.535931 16.374277 10.645446
-40.482143 16.437391 10.568278
-40.424026 16.647665 10.616514
-40.341064 16.867348 10.621586
-40.287926 17.052855 10.637966
-40.211903 17.205263 10.614278
-40.174709 17.359409 10.63659
-40.073303 17.629053 10.636288
-40.006832 17.818167 10.643416
-39.97049 17.903286 10.638344
-40.685783 15.659952 10.925865
-40.641003 15.892574 10.868274
-40.569344 16.137836 10.862882
-40.487667 16.143612 10.916945
-40.548946 16.296833 10.801056
-40.430424 16.376368 10.889525
-40.392181 16.602343 10.864554
-40.30064 16.87118 10.887941
-40.201969 16.962826 10.870953
-40.268204 17.0651 10.7517
-40.167728 17.125919 10.876822
-40.10165 17.353329 10.86764
-39.986 17.4725 10.869
-40.057697 17.612144 10.906409
-39.961369 17.653341 10.870096
-40.02 17.8895 10.996334
-39.89732 17.856291 10.840405
-40.860279 15.630215 11.116576
-40.820992 15.867783 11.164426
-40.709488 15.87985 11.047137
-40.770058 16.049206 11.196028
-40.664413 16.162848 11.111691
-40.59417 16.284834 11.055667
-40.495998 16.362 11.012
-40.23867 17.249001 11.014667
-40.288513 17.402874 11.189276
-40.217224 17.420889 11.042708
-40.181068 17.651478 11.133288
-40.092941 17.875521 11.122942
-40.061001 18.005667 11.148001
-40.841629 15.878342 11.388478
-40.778236 16.051279 11.393612
-40.725918 16.189972 11.395142
-40.668274 16.352613 11.383894
-40.602833 16.529167 11.405167
-40.369801 17.165058 11.391191
-40.296417 17.355785 11.381942
-40.210655 17.598848 11.343646
-40.109913 17.856232 11.395667
-40.05899 18.020512 11.347656
-40.801239 16.095638 11.665383
-40.725052 16.215063 11.581979
-40.682343 16.382816 11.615883
-40.418423 17.150751 11.630295
-40.333916 17.391171 11.635889
-40.29668 17.609604 11.698919
-40.222126 17.64513 11.591567
-40.153313 17.85779 11.60269
