# .PCD v0.7 - Point Cloud Data file format
VERSION 0.7
FIELDS x y z
SIZE 4 4 4
TYPE F F F
COUNT 1 1 1
WIDTH 58
HEIGHT 1
VIEWPOINT -18.2321 96.2205 -1.35163 -0.354149 -0.00701479 0.0211809 0.934923
POINTS 58
DATA ascii
-53.126999 -1.9859999 -0.84000003
-53.095627 -2.0602918 -0.58604169
-53.177662 -1.988 -0.63666666
-53.186337 -1.6791668 -0.66783333
-53.098526 -2.0506001 -0.41567498
-53.188667 -1.9880002 -0.41383332
-53.621975 -1.6945001 -0.43026191
-53.085629 -2.0483055 -0.13402778
-52.804001 -2.0139999 -0.25
-53.485001 -1.778 -0.119
-53.197388 -1.9710001 -0.14416666
-53.797054 -1.5644027 -0.14794445
-53.625286 -1.6817428 -0.15388809
-53.899605 -1.488 -0.1311
-53.068035 -2.0487335 0.14463334
-52.896149 -2.1543498 0.23069999
-52.736496 -2.243 0.24349999
-53.188374 -1.96175 0.15658332
-53.803291 -1.546 0.13018002
-53.620918 -1.6699642 0.16710714
-54.077126 -1.3603749 0.10862501
-53.888554 -1.4877223 0.15055557
-53.053513 -2.0449286 0.39425001
-52.902763 -2.1395714 0.4044762
-52.741669 -2.2463334 0.43766665
-53.19632 -1.9439001 0.40203333
-53.814835 -1.5253334 0.40166667
-53.635448 -1.6482472 0.39925835
-54.085377 -1.3368599 0.37932998
-53.881115 -1.4746666 0.43455556
-53.042347 -2.039489 0.64388889
-52.891304 -2.1379905 0.63362408
-52.727768 -2.2468667 0.64636672
-53.182232 -1.9433223 0.6482389
-53.780109 -1.5432667 0.56472224
-53.614773 -1.6511167 0.5997445
-53.491501 -1.738 0.58099997
-53.000999 -1.684 0.68000001
-52.9855 -1.684 0.62349999
-54.091454 -1.3264 0.59070003
-53.884354 -1.4638749 0.59152091
-53.029377 -2.0383 0.90255004
-52.8657 -2.1477396 0.86843747
-52.721832 -2.2330003 0.88708335
-53.158764 -1.9491001 0.90793335
-53.766998 -1.524 0.99199998
-54.076 -1.3225 0.99400002
-53.833 -1.4859999 0.99699998
-53.035835 -2.0230002 1.1013334
-52.876293 -2.127012 1.1242429
-53.175003 -1.9278704 1.126139
-53.753502 -1.53225 1.13925
-53.610664 -1.631331 1.1352643
-53.849297 -1.4676001 1.1022
-53.026611 -2.0226667 1.3358889
-52.850544 -2.1379905 1.3391072
-53.126331 -1.9531 1.3451667
-53.609875 -1.6219168 1.3130417
