# .PCD v0.7 - Point Cloud Data file format
VERSION 0.7
FIELDS x y z
SIZE 4 4 4
TYPE F F F
COUNT 1 1 1
WIDTH 1560
HEIGHT 1
VIEWPOINT -18.2321 96.2205 -1.35163 -0.354149 -0.00701479 0.0211809 0.934923
POINTS 1560
DATA ascii
-37.330627 27.876995 0.38681364
-37.283165 28.046803 0.30783334
-37.216946 28.17371 0.38922283
-37.142868 28.374569 0.37481853
-37.066597 28.610428 0.35731807
-36.987751 28.65575 0.47624999
-37.0135 28.790485 0.30572224
-36.931648 28.886677 0.42412922
-36.850792 29.130556 0.38186109
-36.667301 29.210743 0.36952379
-36.452999 29.181999 0.47799999
-36.601837 29.322731 0.32275555
-36.428257 29.377764 0.4177103
-36.350037 29.625282 0.38134396
-36.293736 29.8491 0.36859572
-36.220993 29.920347 0.41327778
-36.174927 30.13623 0.38381782
-36.093185 30.354469 0.3817763
-35.986 30.455 0.421
-36.031487 30.59495 0.34938598
-35.610043 31.621233 0.32162812
-36.053574 31.809002 0.47578573
-35.602097 31.858036 0.30171528
-35.478477 31.88484 0.33681431
-35.393139 32.14838 0.32460555
-35.313141 32.376587 0.30150756
-35.265179 32.594856 0.26015556
-35.192581 32.639 0.31783333
-35.124599 32.874882 0.30024007
-35.487167 33.200169 0.42777777
-35.041359 33.074356 0.29157779
-34.986832 33.203831 0.29566666
-35.36224 33.337406 0.39761668
-34.950745 33.344307 0.27622023
-34.459332 34.892262 0.35464585
-34.381947 35.112778 0.36435187
-34.297142 35.345192 0.36016694
-34.248127 35.443249 0.261125
-34.193142 35.633938 0.37587807
-34.100044 35.885403 0.35533175
-34.030167 36.083336 0.397625
-33.984467 36.204063 0.37560001
-33.908447 36.41695 0.39636111
-33.846031 36.586384 0.36544445
-33.778519 36.758743 0.35455558
-33.715748 36.919479 0.34725308
-33.668804 37.075539 0.36970833
-40.382679 18.24304 0.598508
-40.551701 18.457876 0.64994615
-40.446499 18.338057 0.63838893
-40.552158 18.671459 0.63262182
-40.489983 18.62698 0.59681249
-40.625751 18.950089 0.59406662
-40.495472 18.802223 0.64452773
-40.579712 19.106108 0.62589902
-40.512531 19.289183 0.61467785
-40.470898 19.402077 0.62651479
-39.98661 20.710556 0.60582054
-39.773773 21.301813 0.59804171
-39.651436 21.615471 0.632788
-39.563194 21.855734 0.6123578
-39.507378 22.021166 0.60500002
-39.459835 22.118979 0.63311762
-39.352356 22.37254 0.64294159
-39.292637 22.590029 0.59703439
-39.213558 22.695604 0.68149495
-39.155304 22.896366 0.63994205
-39.076553 23.123629 0.6230278
-38.204823 25.416954 0.61116159
-38.153694 25.616354 0.62570965
-38.076546 25.846258 0.62373453
-37.974419 25.951084 0.60149997
-38.020775 26.071917 0.6548453
-37.94677 26.141315 0.61125362
-37.885658 26.34906 0.62835389
-36.973251 28.654751 0.50950003
-37.022083 28.793665 0.64845705
-36.968224 28.907679 0.64379537
-36.892597 29.142309 0.64833218
-36.703625 29.20681 0.59768057
-36.639378 29.346073 0.63367116
-36.474857 29.402411 0.59777504
-36.393539 29.634089 0.64528173
-36.298882 29.893024 0.6154781
-36.251892 30.034336 0.74344444
-36.214622 30.123838 0.60139114
-36.12244 30.373774 0.63755918
-35.335354 33.385643 0.60161066
-35.296673 33.561722 0.583875
-34.504333 34.814331 0.73933333
-34.473236 34.873463 0.63338202
-34.385071 35.126896 0.61708641
-34.286995 35.39489 0.63187152
-34.196327 35.642632 0.63407809
-34.100182 35.9044 0.64919716
-34.032623 36.088707 0.60583335
-33.997749 36.178249 0.58424997
-33.92831 36.378975 0.60475695
-33.823406 36.65987 0.62455899
-33.784492 36.833668 0.68838334
-33.713669 36.926216 0.55996877
-33.700165 37.044838 0.55850005
-40.3778 18.246698 0.95150006
-40.544247 18.441679 0.87798887
-40.412708 18.308128 0.87766469
-40.517113 18.605209 0.88881946
-40.49218 18.637117 0.85799795
-40.566582 18.892996 0.86832321
-40.497814 18.803543 0.89883333
-40.567894 19.103462 0.85070646
-40.479336 19.15428 0.89088893
-40.515636 19.293417 0.89462501
-40.432358 19.387346 0.86568743
-39.576363 21.85108 0.89744908
-39.474865 21.871267 0.77550006
-39.509552 22.038502 0.89816672
-39.451729 22.142551 0.86432725
-39.372883 22.357859 0.8580063
-39.304745 22.586187 0.8678031
-39.217949 22.703548 0.80254996
-39.189556 22.864283 0.85899448
-38.199116 25.606232 0.8782056
-38.109222 25.853207 0.87421429
-38.022987 26.09252 0.86983764
-37.991165 26.177086 0.88866669
-37.905582 26.366417 0.85839903
-37.074955 28.792316 0.94361162
-36.977749 28.86351 0.87047219
-36.897057 29.150072 0.892757
-36.706787 29.229507 0.85144758
-36.627621 29.353827 0.89629763
-36.480335 29.414316 0.85961103
-36.398907 29.642321 0.89431947
-36.305603 29.894585 0.86379343
-36.254349 30.036551 0.89985001
-36.202625 30.174301 0.85375088
-36.121014 30.396967 0.88596398
-36.07 30.620392 0.88987303
-34.526447 34.787334 0.89622223
-34.47197 34.91156 0.89689165
-34.388416 35.134712 0.86050302
-34.298054 35.38538 0.87995243
-34.206619 35.633453 0.86807638
-34.123024 35.867176 0.90276587
-34.038387 36.094212 0.85451293
-33.934048 36.376091 0.85152626
-33.839005 36.636688 0.86443877
-33.797764 36.868645 0.87930959
-33.82362 37.09404 0.86176527
-40.546501 18.474274 1.0923285
-40.352142 18.318504 1.1382724
-40.517933 18.580597 1.1256177
-40.489563 18.657988 1.0959285
-40.575607 18.858465 1.1293561
-40.497334 18.822111 1.1417779
-40.584686 19.119394 1.1493657
-40.517944 19.302734 1.0642778
-40.479115 19.372568 1.1508163
-39.571991 21.855541 1.1394002
-39.514626 22.043186 1.104875
-39.469738 22.167742 1.1326402
-39.387707 22.389936 1.1340126
-39.307556 22.60507 1.1628816
-39.233803 22.747 1.0434
-39.257092 22.756456 1.2487272
-39.196613 22.856586 1.1288333
-38.203133 25.620026 1.1571195
-38.111584 25.866877 1.1198159
-38.031757 26.08078 1.0980278
-37.992062 26.182625 1.1025624
-37.92701 26.378399 1.1128341
-37.93655 26.572691 1.1351041
-37.105667 28.861794 1.1406102
-36.981674 28.96076 1.0985625
-36.91003 29.138685 1.1233131
-36.714504 29.222668 1.1088333
-36.866722 29.259666 1.1957222
-36.649769 29.349817 1.1208793
-36.485806 29.418863 1.1052222
-36.40155 29.652954 1.1344953
-36.311005 29.903389 1.1338015
-36.260967 30.041853 1.149111
-36.20406 30.198597 1.1261102
-36.145618 30.371273 1.1566032
-36.116459 30.631166 1.1357709
-34.527184 34.79068 1.1035833
-34.479382 34.909786 1.125466
-34.396053 35.139889 1.1475719
-34.297729 35.401268 1.0955079
-34.211102 35.641541 1.1256648
-34.126953 35.871544 1.1212847
-34.046986 36.087944 1.1243473
-33.947166 36.359497 1.1314772
-33.845695 36.634502 1.1335851
-33.793583 36.861698 1.1211591
-33.824749 37.113186 1.13275
-40.558361 18.475536 1.4061787
-40.368813 18.309683 1.363993
-40.519066 18.592754 1.3730733
-40.49263 18.662611 1.3518906
-40.593571 18.839611 1.3715409
-40.4995 18.823 1.39575
-40.584412 19.128086 1.3706228
-40.565937 19.355165 1.4221854
-40.486797 19.376043 1.3147243
-40.634384 19.612444 1.385303
-39.865643 21.635937 1.3703858
-39.632183 21.849195 1.411562
-39.518356 22.046595 1.355106
-39.472012 22.174253 1.3764747
-39.396065 22.382738 1.3822714
-39.299778 22.643131 1.3964945
-39.280739 22.931293 1.4053898
-39.248001 22.821442 1.3592223
-38.205425 25.631319 1.4066914
-38.113312 25.877441 1.3774278
-38.035652 26.088953 1.3517648
-37.993114 26.198334 1.3461112
-37.956242 26.340118 1.3777508
-37.405769 28.710291 1.3655016
-37.263248 28.772099 1.39605
-37.121235 28.867414 1.3941709
-36.985004 28.954056 1.3593888
-37.002998 29.030001 1.473
-36.920971 29.134996 1.3750437
-36.730892 29.235334 1.3551111
-36.872166 29.263893 1.4013221
-36.658382 29.342726 1.3812931
-36.484169 29.438639 1.3252778
-36.417732 29.625561 1.3871877
-36.32608 29.878777 1.3792267
-36.265221 30.045444 1.3960001
-36.218666 30.169535 1.3687556
-36.157791 30.348877 1.3919463
-36.118744 30.613962 1.3805926
-34.521442 34.832882 1.3534074
-34.477783 34.928734 1.3698992
-34.41333 35.1068 1.3953482
-34.317505 35.36824 1.360301
-34.254128 35.539566 1.3494214
-34.216084 35.646904 1.3980416
-34.127148 35.887192 1.3644385
-34.028687 36.158279 1.3671545
-33.989803 36.249599 1.2520001
-33.957863 36.351864 1.4038057
-33.845821 36.656101 1.3802221
-33.787346 36.839943 1.36825
-33.82584 37.134968 1.3924
-40.382324 18.363522 1.6099489
-40.526985 18.586493 1.6245314
-40.494766 18.671467 1.5925001
-40.564999 18.856503 1.619639
-40.499001 18.854 1.7
-40.601582 19.114441 1.6386472
-40.58736 19.36067 1.6422766
-40.610916 19.578405 1.646008
-40.765232 19.804569 1.6236334
-40.257 21.379999 1.668
-39.86124 21.652157 1.6280532
-39.645443 21.851278 1.6416076
-39.523079 22.049435 1.5941699
-39.468853 22.198706 1.6471297
-39.393963 22.402882 1.6342014
-39.298782 22.658924 1.6212859
-39.280685 22.920937 1.6457973
-39.298759 23.119463 1.6152592
-38.215382 25.614717 1.6026453
-38.120903 25.872526 1.6154104
-38.038902 26.090813 1.601175
-37.980709 26.248081 1.6000834
-37.945183 26.365738 1.636493
-37.979488 26.581583 1.632094
-37.379387 28.721394 1.5829717
-37.268448 28.775562 1.6031458
-37.140652 28.876869 1.6378226
-36.990669 28.958 1.6056666
-37.015892 29.040001 1.6385555
-36.926067 29.130159 1.6269689
-36.875622 29.272261 1.6279999
-36.665829 29.340649 1.6284906
-36.483963 29.459555 1.6440371
-36.42107 29.627504 1.6077833
-36.330307 29.878889 1.6425046
-36.268074 30.049446 1.5963056
-36.220612 30.179407 1.6444629
-36.158806 30.350336 1.6320486
-36.114452 30.610022 1.6352366
-34.531223 34.838448 1.6037779
-34.484291 34.928154 1.6255
-34.411007 35.130028 1.6203969
-34.319321 35.378487 1.6074786
-34.257812 35.547516 1.6423842
-34.201797 35.697849 1.6020695
-34.122971 35.91436 1.6403754
-34.03548 36.153816 1.6216853
-33.961403 36.360172 1.6400471
-33.871532 36.601391 1.6246302
-33.788326 36.837082 1.6648973
-33.822227 37.113525 1.6364079
-40.545055 18.463167 1.8530555
-40.524395 18.605721 1.8724263
-40.494133 18.692936 1.8732666
-40.607353 18.878664 1.8510382
-40.60498 19.118361 1.8856647
-40.581413 19.373402 1.8820894
-40.606831 19.576151 1.9061276
-39.837254 21.685667 1.8688176
-39.64072 21.867134 1.8810623
-39.519032 22.079748 1.8634193
-39.47678 22.193151 1.8794026
-39.413952 22.368277 1.8826145
-39.31778 22.621632 1.8486021
-39.289146 22.904268 1.8978977
-39.243546 22.852684 1.8939092
-39.310024 23.148512 1.8548092
-38.214317 25.630945 1.8610475
-38.118916 25.88909 1.8543917
-38.029839 26.131742 1.8502458
-37.952446 26.356312 1.8622813
-37.974003 26.597681 1.8749222
-37.384232 28.741369 1.8311056
-37.323891 28.772585 1.8821332
-37.12571 28.887094 1.8724411
-36.986889 28.975 1.8552222
-37.020168 29.042999 1.8851666
-36.931149 29.135534 1.8810713
-36.869534 29.284904 1.8587986
-36.642616 29.359446 1.876882
-36.484818 29.472794 1.8890624
-36.434296 29.608406 1.8568519
-36.334419 29.882898 1.8910795
-36.271778 30.050558 1.8515555
-36.223011 30.185427 1.8932834
-36.161888 30.351221 1.8776493
-36.128239 30.622208 1.8755729
-34.524536 34.868332 1.8791721
-34.482849 34.947456 1.8971161
-34.421047 35.116932 1.8675333
-34.328587 35.369736 1.8600202
-34.263 35.550556 1.8996665
-34.20599 35.702171 1.8518472
-34.136101 35.895309 1.8961806
-34.048519 36.132584 1.8586587
-33.965431 36.358288 1.8725761
-33.883362 36.582275 1.8626006
-33.791798 36.837482 1.8838543
-33.823338 37.1371 1.8891834
-40.558903 18.445316 2.1170835
-40.536137 18.592377 2.1246762
-40.492752 18.714251 2.0949166
-40.607517 18.876404 2.129823
-40.600288 19.148741 2.1383364
-40.5867 19.407167 2.1246421
-40.618149 19.601336 2.1341853
-39.63525 21.892912 2.1416519
-39.523869 22.085922 2.1484859
-39.480282 22.198664 2.0906112
-39.418438 22.37355 2.1545062
-39.318081 22.637444 2.0944023
-39.272514 22.879757 2.1348443
-39.245441 22.856888 2.0572224
-38.252769 25.552586 2.1942
-38.206146 25.673016 2.1176898
-38.117527 25.912836 2.1353457
-38.034008 26.134565 2.0956621
-37.965031 26.355659 2.1343338
-37.971992 26.599091 2.1297889
-37.335999 28.74711 2.0511112
-37.379452 28.764627 2.1507053
-37.136566 28.894007 2.14101
-36.990833 28.977501 2.102
-37.006622 29.032124 2.0985
-36.932198 29.148912 2.1288311
-36.880539 29.291042 2.1052084
-36.652283 29.365061 2.1298037
-36.487423 29.481001 2.1356444
-36.430779 29.634958 2.1313999
-36.338821 29.883297 2.1097031
-36.276001 30.053833 2.0986111
-36.226147 30.193815 2.1393332
-36.168369 30.34915 2.1198413
-36.124863 30.621346 2.151778
-36.169697 30.875458 2.1298473
-34.53233 34.844933 2.1342638
-34.483147 34.957153 2.1008453
-34.42556 35.121544 2.1377954
-34.334888 35.365482 2.1317496
-34.266666 35.554279 2.1069446
-34.220367 35.683792 2.1369858
-34.161476 35.838928 2.1166382
-34.052452 36.135952 2.1215932
-33.973389 36.352123 2.1143868
-33.888142 36.584969 2.1019678
-33.802776 36.865219 2.1280706
-33.797668 37.106152 2.1210852
-33.8596 37.297401 2.1230667
-40.524353 18.630905 2.3438139
-40.494919 18.705584 2.3849168
-40.571121 18.859461 2.3589189
-40.607277 19.140749 2.3836756
-40.592896 19.383255 2.3603029
-40.619606 19.634256 2.3628368
-40.745251 19.984749 2.3912501
-39.870262 21.690662 2.3816209
-39.76017 21.761055 2.3941667
-39.638268 21.903416 2.3670936
-39.530701 22.08699 2.3969197
-39.492054 22.186724 2.3450556
-39.423061 22.374386 2.3825676
-39.326557 22.634609 2.3602881
-39.279133 22.854527 2.3613989
-39.25 22.870573 2.4337146
-39.298809 23.068258 2.3822608
-38.259819 25.550013 2.3991327
-38.203354 25.698864 2.4021318
-38.116261 25.934282 2.3792057
-38.038963 26.139675 2.3543863
-37.970989 26.334681 2.3799825
-37.981529 26.593969 2.3653998
-37.116749 28.910997 2.3789308
-36.996445 28.982002 2.3488889
-36.945873 29.129105 2.3702414
-36.862507 29.295679 2.3663859
-36.649681 29.381258 2.3600633
-36.496796 29.469584 2.4070415
-36.439827 29.627214 2.3609102
-36.352192 29.865559 2.3668394
-36.281261 30.056313 2.3553483
-36.230686 30.197247 2.3994341
-36.165749 30.373957 2.3653197
-36.116489 30.625706 2.3819444
-36.168293 30.904001 2.3892503
-34.543732 34.826447 2.3792856
-34.484722 34.963833 2.3597779
-34.420013 35.145229 2.3618724
-34.324734 35.410019 2.372263
-34.270359 35.555645 2.3510511
-34.220371 35.693027 2.3686304
-34.155544 35.869179 2.3650937
-34.048809 36.160549 2.3689082
-33.95937 36.40406 2.3544436
-33.893677 36.584217 2.3546369
-33.804844 36.874123 2.373615
-33.796928 37.085426 2.3575208
-33.870293 37.346638 2.3828254
-33.847771 37.595894 2.3850038
-33.720833 37.690056 2.4511113
-40.517132 18.666971 2.6537499
-40.573364 18.879368 2.6376808
-40.607716 19.155123 2.6142783
-40.589912 19.390211 2.6277366
-40.618938 19.634861 2.6510124
-39.885788 21.692331 2.632256
-39.761612 21.761669 2.5926528
-39.64122 21.905022 2.5896063
-39.532124 22.087524 2.6028223
-39.49371 22.193375 2.6066251
-39.428856 22.371372 2.6165617
-39.330807 22.636446 2.6444902
-39.27137 22.856997 2.5877864
-39.296238 23.101152 2.620563
-38.286266 25.539324 2.6026945
-38.207722 25.700735 2.6179984
-38.133511 25.900526 2.6033349
-38.050598 26.126913 2.6486962
-37.974304 26.340885 2.6228561
-37.973125 26.609716 2.6197467
-38.105 27.228001 2.7279999
-37.344898 28.792831 2.6129448
-37.102043 28.920742 2.6379964
-37.008415 29.077333 2.6185
-36.94273 29.144711 2.6232686
-36.874268 29.314291 2.6295114
-36.662689 29.371998 2.6395521
-36.5 29.472 2.5955
-36.44405 29.629381 2.6453099
-36.362999 29.84988 2.6232395
-36.280617 30.079887 2.6598611
-36.249054 30.159111 2.5898335
-36.176834 30.356279 2.6055741
-36.113056 30.632584 2.6464212
-36.151917 30.88975 2.6377501
-36.149727 31.124996 2.6869392
-34.54369 34.844467 2.6052186
-34.491302 34.970219 2.6438501
-34.428802 35.144894 2.618645
-34.337418 35.389389 2.6134691
-34.275196 35.557552 2.6426013
-34.226067 35.691334 2.6327505
-34.163486 35.863224 2.6498981
-34.083969 36.08144 2.6508274
-34.020447 36.250999 2.5933332
-33.964668 36.405788 2.6435647
-33.888348 36.614368 2.6337194
-33.80183 36.860661 2.6162312
-33.796288 37.092777 2.6175239
-33.87215 37.34444 2.6040571
-33.870792 37.604248 2.5385833
-40.549587 18.458166 2.8450832
-40.568497 18.5065 2.8179998
-40.492889 18.74478 2.8528888
-40.586239 18.893612 2.8881249
-40.614361 19.14753 2.851819
-40.585819 19.415585 2.8679693
-40.62299 19.648804 2.8966033
-39.902653 21.689484 2.8843994
-39.759407 21.759888 2.8543704
-39.646263 21.905869 2.8518908
-39.536999 22.093466 2.8487647
-39.498169 22.195499 2.80475
-39.430649 22.381611 2.8611016
-39.334934 22.638357 2.9035947
-39.269077 22.862108 2.8535564
-38.298466 25.545982 2.849611
-38.219734 25.681046 2.8679335
-38.158672 25.846792 2.8536582
-38.059433 26.119368 2.8815532
-37.973873 26.365555 2.8618193
-37.963203 26.608603 2.8743889
-38.049957 26.868555 2.8511112
-37.985302 26.95755 2.9033999
-38.079185 27.109915 2.8429086
-37.927792 27.156664 2.9125624
-37.409714 28.610281 2.8395045
-37.344627 28.801186 2.8650563
-37.109646 28.929136 2.8766923
-37.028305 29.082306 2.8601389
-36.948292 29.147621 2.8641086
-36.888367 29.308044 2.8648109
-36.651474 29.414352 2.8748477
-36.448338 29.635817 2.8962348
-36.361599 29.868471 2.8679328
-36.281227 30.08674 2.8798461
-36.180775 30.359579 2.8556185
-36.110683 30.630238 2.8950138
-36.148563 30.886562 2.8995209
-36.180046 31.104877 2.846
-34.555286 34.844482 2.8585904
-34.490128 34.980999 2.8896251
-34.439182 35.12714 2.8675308
-34.360558 35.343037 2.8651254
-34.268333 35.594391 2.9011102
-34.22683 35.704067 2.8493423
-34.161976 35.87965 2.886111
-34.089855 36.079662 2.897301
-34.018723 36.275909 2.8829374
-33.973869 36.39431 2.8962224
-33.881241 36.646839 2.8651953
-33.795372 36.895882 2.8726819
-33.804554 37.122105 2.872026
-33.862759 37.344357 2.847389
-40.516144 18.747429 3.1597145
-40.550064 18.891169 3.1154482
-40.615818 19.151705 3.1206431
-40.586441 19.387123 3.1360948
-40.619671 19.665934 3.1248958
-39.997253 21.49225 3.12975
-39.925423 21.665112 3.135242
-39.764038 21.764593 3.1442592
-39.646183 21.904322 3.1232338
-39.528561 22.133768 3.15169
-39.5 22.197001 3.0275002
-39.431564 22.391548 3.1145878
-39.338867 22.643372 3.1520779
-39.275349 22.864677 3.1497273
-38.296986 25.55154 3.12274
-38.223831 25.683563 3.1231225
-38.162956 25.85141 3.1477408
-38.076824 26.086603 3.1217139
-38.016304 26.254398 3.1415
-37.96841 26.396019 3.1472595
-37.962906 26.598848 3.104399
-38.052135 26.857685 3.1411335
-38.098961 27.144377 3.0368752
-37.378235 28.805601 3.1235435
-37.123302 28.933359 3.1448982
-37.037571 29.029535 3.1451952
-36.969109 29.115738 3.1286278
-36.899075 29.304243 3.1458333
-36.673355 29.406612 3.1298418
-36.446835 29.653614 3.1332695
-36.368084 29.865601 3.0873737
-36.288307 30.088165 3.1349812
-36.181698 30.375612 3.1415744
-36.105274 30.606604 3.1313968
-36.148373 30.849119 3.1355171
-36.184334 31.014002 3.1420002
-34.544109 34.872425 3.1331363
-34.492832 34.995834 3.1361668
-34.438267 35.14761 3.1386478
-34.363758 35.350647 3.137953
-34.280548 35.575382 3.1260631
-34.218002 35.744751 3.0549998
-34.171898 35.870602 3.1187606
-34.093998 36.08136 3.1229606
-34.019985 36.287731 3.1309669
-33.974068 36.412312 3.1340971
-33.888309 36.645702 3.1394169
-33.79792 36.919769 3.1059995
-33.795113 37.11552 3.1203797
-33.850586 37.350918 3.1185832
-40.598209 18.461355 3.4128125
-40.54195 18.642574 3.4098842
-40.567581 18.895174 3.3798184
-40.493999 18.779999 3.4076667
-40.620647 19.161852 3.3640654
-40.591835 19.395166 3.3848755
-40.613865 19.639914 3.3588402
-40.812912 19.891912 3.3888891
-39.907681 21.709702 3.3774607
-39.759968 21.775454 3.4069169
-39.640522 21.927866 3.3749325
-39.538013 22.11883 3.3854203
-39.455734 22.34004 3.3661518
-39.343536 22.642502 3.3938427
-39.28381 22.861044 3.4043126
-38.308876 25.543312 3.3741479
-38.225178 25.705633 3.3742702
-38.169258 25.858915 3.3927763
-38.074039 26.110508 3.3656533
-38.020775 26.253277 3.4109998
-37.970814 26.398413 3.3921945
-37.963413 26.616795 3.3622861
-37.994999 26.752001 3.3710001
-37.027081 29.067265 3.4017222
-36.981297 29.103662 3.3739846
-36.903278 29.30703 3.3940554
-36.670216 29.431036 3.370662
-36.504665 29.514887 3.3577778
-36.459072 29.63838 3.3753173
-36.365391 29.889687 3.3544261
-36.299431 30.071917 3.3687193
-36.239044 30.239843 3.3597879
-36.193413 30.368822 3.3863809
-36.112518 30.608822 3.388437
-36.121456 30.857157 3.3799167
-36.181343 31.06019 3.4103096
-34.57267 34.846832 3.3750648
-34.495499 34.997501 3.3429999
-34.502998 35.005001 3.4990001
-34.449944 35.130489 3.3742654
-34.362 35.37397 3.3740404
-34.291225 35.565449 3.3649397
-34.191814 35.837982 3.3629603
-34.088787 36.111382 3.3525894
-34.017548 36.307262 3.3732469
-33.983044 36.404083 3.3656666
-33.895439 36.64817 3.3831856
-33.806171 36.888363 3.37305
-33.769756 37.145096 3.3530972
-33.818699 37.395714 3.3586721
-33.830002 37.542667 3.4586668
-40.567665 18.453999 3.5623333
-40.538338 18.660791 3.6294076
-40.348999 18.507999 3.688
-40.585346 18.909739 3.6215913
-40.497334 18.781168 3.5961666
-40.629253 19.148758 3.6020062
-40.581242 19.358818 3.6464396
-40.609264 19.645647 3.6039453
-40.869225 19.926224 3.6496668
-39.800392 21.76849 3.6324334
-39.655418 21.920513 3.6390939
-39.538692 22.134937 3.6355736
-39.456379 22.356968 3.6360116
-39.36483 22.602474 3.6170676
-39.279049 22.85018 3.6515062
-38.301971 25.54916 3.6359603
-38.23164 25.697201 3.6027708
-38.171738 25.861183 3.6425591
-38.086632 26.089191 3.6259167
-38.01358 26.288971 3.6055973
-37.973045 26.414087 3.6263707
-37.956959 26.62709 3.6339202
-37.033955 29.063919 3.6401477
-36.976799 29.128098 3.638881
-36.886261 29.324402 3.6363072
-36.662441 29.426374 3.6434362
-36.638615 29.511835 3.6288054
-36.463161 29.643347 3.6288557
-36.38739 29.853207 3.6503334
-36.299713 30.093065 3.6471241
-36.245163 30.239445 3.6093333
-36.192043 30.38336 3.6377776
-36.106777 30.632099 3.6373048
-36.102154 30.889444 3.61707
-34.564823 34.853973 3.6191571
-34.503944 35.005669 3.642889
-34.455986 35.132824 3.6185699
-34.374851 35.35062 3.6148336
-34.292809 35.576378 3.6195557
-34.193798 35.847485 3.6318886
-34.091877 36.123882 3.6324923
-34.027237 36.300755 3.6227493
-33.985161 36.413033 3.5961528
-33.899662 36.64819 3.5998614
-33.813358 36.888973 3.6719098
-33.758518 37.041031 3.6527832
-33.721825 37.153915 3.6506064
-33.789501 37.393337 3.538111
-33.734795 37.350929 3.6466548
-33.785835 37.589855 3.6297667
-33.7355 37.544998 3.7484999
-40.612701 18.468149 3.8380003
-40.428001 18.441 3.76
-40.561504 18.584902 3.8988469
-40.414886 18.566999 3.8608859
-40.585739 18.879271 3.8659644
-40.5 18.782 3.7690001
-40.618008 19.128819 3.8582239
-40.589191 19.37154 3.876332
-39.808281 21.767834 3.8478334
-39.658718 21.919146 3.9012117
-39.539692 22.139132 3.8756928
-39.459019 22.358389 3.875963
-39.358841 22.628719 3.8601227
-39.275963 22.900766 3.8858414
-38.291668 25.58544 3.8656306
-38.221752 25.746 3.94875
-38.181202 25.852119 3.8696501
-38.097904 26.074694 3.8640954
-38.017223 26.292551 3.8552411
-37.978371 26.396704 3.8733287
-37.94936 26.646688 3.8659277
-37.028275 29.047112 3.893611
-36.978764 29.130167 3.8671005
-36.895115 29.344015 3.8922715
-36.6576 29.429108 3.865128
-36.605179 29.526459 3.8864443
-36.477715 29.619339 3.886939
-36.390694 29.856525 3.8690498
-36.294754 30.12509 3.9186656
-36.248726 30.242001 3.8086667
-36.200459 30.377783 3.8653796
-36.101013 30.662846 3.8733222
-36.063515 30.893509 3.8748002
-34.647282 34.662758 3.8787441
-34.562683 34.849865 3.861881
-34.506668 35.007668 3.8958335
-34.466019 35.118366 3.8766694
-34.38295 35.347027 3.8564398
-34.291149 35.596779 3.8648281
-34.240829 35.747169 3.9568336
-34.196228 35.857132 3.8632588
-34.09082 36.147434 3.8861589
-34.024689 36.321796 3.8762987
-33.985889 36.423767 3.8616805
-33.91227 36.627819 3.8505969
-33.817825 36.886955 3.9080319
-33.758942 37.047112 3.8948331
-33.712002 37.193501 3.8321218
-33.681519 37.373055 3.8663061
-33.695644 37.645321 3.8679211
-33.694336 37.839317 3.9337335
-33.632278 38.356094 3.877162
-33.567001 38.640999 3.9460001
-33.457001 38.514999 3.9679999
-40.620724 18.477335 4.1460557
-40.362 18.478001 4.0009999
-40.582222 18.577995 4.1495509
-40.460999 18.559 4.0110002
-40.550156 18.849314 4.1156211
-40.499252 18.81925 4.197
-40.614326 19.130428 4.1221876
-40.577991 19.363049 4.1315413
-39.77293 21.759979 4.1084318
-39.657307 21.913876 4.1318364
-39.548759 22.131575 4.1230102
-39.463863 22.362186 4.1198492
-39.375717 22.60112 4.1235781
-39.288998 22.845785 4.1306572
-38.291897 25.574945 4.1439638
-38.226791 25.748833 4.1921663
-38.177956 25.873148 4.0959134
-38.092056 26.112013 4.1449118
-38.02372 26.29546 4.1044159
-37.978512 26.414318 4.1035862
-37.908619 26.652405 4.1327763
-37.027679 29.037571 4.0996103
-36.960312 29.201336 4.1222939
-36.893677 29.375048 4.1391664
-36.643856 29.43716 4.1330242
-36.762001 29.552334 4.1865005
-36.618069 29.529099 4.0927668
-36.48243 29.621714 4.101799
-36.400719 29.845419 4.1143241
-36.296253 30.134785 4.1403685
-36.196709 30.404846 4.1308889
-36.11211 30.63526 4.124568
-36.032215 30.888783 4.1117139
-35.996376 30.956375 4.1175003
-34.7425 34.4408 4.1384997
-34.667992 34.622242 4.1028967
-34.566109 34.861038 4.129158
-34.50946 35.016083 4.1088333
-34.470467 35.120079 4.1317878
-34.387775 35.351204 4.1428008
-34.29594 35.604324 4.0990906
-34.243164 35.7495 4.1486669
-34.195839 35.875713 4.1136355
-34.098576 36.139957 4.1385632
-34.021683 36.349194 4.1431298
-33.97971 36.458084 4.1422086
-33.9104 36.640011 4.1163697
-33.820179 36.887726 4.1130052
-33.76178 37.046547 4.1034927
-33.72007 37.176666 4.156353
-33.645187 37.377625 4.1275082
-33.602379 37.58712 4.1619201
-33.591656 37.852718 4.1317716
-33.587643 38.112785 4.1538563
-33.602558 38.343163 4.1155858
-33.488602 38.429649 4.0939498
-33.456749 38.514832 4.1028333
-40.61594 18.479383 4.3738494
-40.586914 18.585909 4.3971686
-40.57642 18.884974 4.3566432
-40.499001 18.819 4.4086666
-40.601051 19.112282 4.3773093
-40.571037 19.358852 4.3779306
-40.496002 19.59 4.4656668
-39.66238 21.873688 4.3647151
-39.54285 22.157579 4.3611765
-39.465538 22.368 4.3613071
-39.38353 22.59408 4.3885899
-39.285091 22.859198 4.3541155
-38.387833 25.384802 4.3609748
-38.290993 25.582777 4.3974004
-38.229767 25.749155 4.3430767
-38.1842 25.873125 4.3745408
-38.084778 26.144194 4.3736577
-38.010635 26.343901 4.3510222
-37.982174 26.421028 4.3514905
-37.911922 26.642626 4.3611178
-37.105869 28.848999 4.3635688
-37.013542 29.067545 4.3747554
-36.970272 29.181503 4.3659592
-36.897907 29.382589 4.3800774
-36.670952 29.428646 4.3746815
-36.768459 29.562252 4.3949165
-36.604244 29.537888 4.3553147
-36.486546 29.62454 4.3563037
-36.401299 29.858599 4.3594017
-36.302921 30.132828 4.3770876
-36.260891 30.250723 4.4074998
-36.207157 30.396132 4.3850927
-36.10791 30.662813 4.3627148
-36.026115 30.890619 4.3598056
-35.993778 30.979334 4.3651118
-36.016998 31.022499 4.2755003
-35.961021 31.146141 4.3564839
-34.783802 34.322601 4.3760915
-34.731884 34.447414 4.3493781
-34.663704 34.612427 4.3692322
-34.577747 34.843979 4.3895884
-34.510056 35.026024 4.3568501
-34.467388 35.143059 4.3728595
-34.391094 35.358421 4.3790002
-34.292236 35.627071 4.363688
-34.245419 35.748753 4.3006167
-34.198154 35.876446 4.3602815
-34.094719 36.162205 4.3828349
-34.016598 36.378891 4.4087777
-33.987125 36.45462 4.4087553
-33.92926 36.604816 4.3509259
-33.829086 36.877796 4.3599162
-33.764816 37.054516 4.3472223
-33.721165 37.174072 4.4022775
-33.643394 37.382881 4.3703775
-33.577679 37.568741 4.4081106
-33.517632 37.83746 4.3750601
-33.475777 37.906689 4.3904023
-33.455154 38.13121 4.3718562
-33.502502 38.349503 4.2835002
-33.418625 38.387207 4.4015241
-33.372128 38.627659 4.4041805
-40.73209 17.948729 4.748909
-40.709335 18.019667 4.7436671
-40.631889 18.481501 4.6506114
-40.581779 18.61491 4.6510935
-40.540745 18.868898 4.6228237
-40.5 18.819 4.5830002
-40.626263 19.143 4.6315494
-40.566032 19.375635 4.6116915
-40.517704 19.622101 4.6185465
-40.484009 19.611446 4.6002102
-39.728931 21.70722 4.6087089
-39.665798 21.851089 4.5852165
-39.551167 22.149172 4.6182604
-39.465656 22.377832 4.6267228
-39.393406 22.574369 4.6243453
-39.29578 22.845678 4.645968
-38.459961 25.156794 4.6297841
-38.374722 25.367031 4.6277165
-38.292404 25.591757 4.6360888
-38.237309 25.74704 4.6051235
-38.187115 25.885015 4.6450338
-38.100628 26.12075 4.6347303
-38.026684 26.321489 4.6250715
-37.985115 26.431736 4.6225891
-37.904072 26.652769 4.6168365
-37.812206 26.919205 4.6078491
-37.736839 27.148998 4.6983719
-37.204082 28.605637 4.5920248
-37.099339 28.853279 4.6206841
-37.015446 29.076521 4.646667
-36.966476 29.208323 4.6242228
-36.904629 29.378799 4.6398892
-36.684555 29.429056 4.6146665
-36.641586 29.543831 4.6372709
-36.478668 29.661057 4.6041117
-36.402237 29.868296 4.6294441
-36.313847 30.115465 4.6338277
-36.262779 30.251722 4.6073332
-36.203529 30.418753 4.6220551
-36.123627 30.637651 4.6357217
-36.030609 30.893784 4.6107154
-35.999001 30.983334 4.6058335
-35.936634 31.158865 4.6248794
-35.877987 31.366907 4.6255088
-34.940918 33.904915 4.66258
-34.857742 34.126801 4.6306858
-34.779499 34.305416 4.6429024
-34.726376 34.450874 4.6065626
-34.674072 34.600025 4.6226954
-34.579876 34.857697 4.6098089
-34.514446 35.037888 4.6449447
-34.472721 35.147949 4.632019
-34.19379 35.906567 4.6097708
-34.103699 36.151497 4.6170778
-33.990116 36.461113 4.6430001
-33.941006 36.596111 4.6447749
-33.834324 36.882236 4.6263309
-33.768387 37.055389 4.6005001
-33.724659 37.179329 4.634593
-33.653976 37.371651 4.6337757
-33.579327 37.572006 4.6511421
-33.507416 37.775539 4.6688752
-33.46629 37.884571 4.6343374
-33.391186 38.12709 4.6291227
-33.321625 38.374805 4.6420307
-33.290779 38.581535 4.5747204
-40.628666 18.496334 4.8893332
-40.584103 18.618587 4.8801146
-40.553799 18.912672 4.9054294
-40.5 18.849001 4.9619999
-40.593269 19.114834 4.8548388
-40.580956 19.353758 4.8803191
-40.511566 19.581678 4.8315296
-40.486149 19.613995 4.852139
-40.411766 19.872316 4.8887997
-39.725094 21.686209 4.8776731
-39.661926 21.856899 4.8540902
-39.569748 22.111206 4.8699841
-39.502335 22.303335 4.9603338
-39.466667 22.391682 4.8674164
-39.391579 22.593679 4.8569164
-39.298347 22.855431 4.8975182
-39.194538 23.135458 4.8748617
-38.596577 24.83968 4.8738918
-38.514393 25.027113 4.8548331
-38.45882 25.154188 4.8633528
-38.3787 25.375599 4.872879
-38.301125 25.587921 4.8733349
-38.244705 25.740408 4.8572593
-38.191502 25.887819 4.8959813
-38.095467 26.151529 4.8746099
-38.019108 26.366056 4.902
-37.981766 26.462456 4.8936892
-37.910213 26.651697 4.8604336
-37.81081 26.918383 4.8568559
-37.760269 27.058525 4.8588481
-37.7141 27.19508 4.8729668
-37.292442 28.363989 4.8665118
-37.198708 28.600691 4.8553691
-37.102489 28.854176 4.8624883
-37.01989 29.079193 4.8961115
-36.97628 29.194677 4.8668447
-36.879932 29.38962 4.8824697
-36.717991 29.421179 4.8621502
-36.616661 29.545609 4.8777618
-36.483112 29.663963 4.8532963
-36.413681 29.856119 4.8626599
-36.050606 30.853451 4.8577976
-35.999001 30.9825 4.7895002
-35.947414 31.138035 4.8672047
-35.865574 31.367296 4.8918338
-35.79258 31.594103 4.8745599
-35.06126 33.61729 4.8762727
-35.007999 33.813 4.7930002
-34.936386 33.893631 4.8786335
-34.842182 34.144917 4.8982201
-34.783306 34.309696 4.8994446
-34.731316 34.45224 4.8504443
-34.670368 34.626873 4.8567476
-34.580296 34.875145 4.8578877
-34.205822 35.894104 4.8697996
-34.12199 36.117996 4.8505492
-33.774281 37.062672 4.8438611
-33.725578 37.198372 4.8699737
-33.669224 37.35146 4.8757005
-33.585938 37.583004 4.8991985
-33.509583 37.790962 4.89575
-33.464417 37.909531 4.9017801
-33.380135 38.147419 4.8771253
-33.291786 38.386341 4.8766031
-40.632835 18.497334 5.1001668
-40.577881 18.651373 5.1308007
-40.574661 18.924532 5.1474938
-40.592041 19.099293 5.1463566
-40.588589 19.349432 5.1400542
-40.515911 19.5495 5.1465693
-40.46809 19.681429 5.144546
-40.393574 19.886108 5.135396
-39.855934 21.359642 5.1288915
-39.77042 21.580194 5.1486034
-39.727615 21.694185 5.1274004
-39.667549 21.861296 5.1465898
-39.571224 22.122114 5.1473107
-39.503887 22.303667 5.1527781
-39.468231 22.400822 5.1300955
-39.396877 22.597092 5.1454892
-39.303482 22.851339 5.1063209
-39.20116 23.13583 5.138886
-39.102955 23.404028 5.1463127
-39.035221 23.585733 5.1328888
-38.561279 24.895742 5.1011047
-38.511646 25.033241 5.1464815
-38.463051 25.159279 5.1422596
-38.381477 25.384909 5.1232314
-38.29071 25.635509 5.1524572
-38.248554 25.742334 5.053
-38.191212 25.906479 5.1306329
-38.101925 26.149721 5.1185851
-38.018803 26.38121 5.1236238
-37.986435 26.467028 5.1482062
-37.917664 26.651815 5.1463833
-37.817863 26.919046 5.1032319
-37.764221 27.062111 5.1072779
-37.717316 27.187315 5.145185
-37.660694 27.338856 5.1221986
-37.28466 28.381124 5.1210737
-37.197468 28.614233 5.1320438
-37.10527 28.864241 5.117136
-37.021973 29.087511 5.1441317
-36.974007 29.216501 5.1267748
-36.904099 29.401394 5.1400738
-36.711105 29.444077 5.149189
-36.771667 29.599335 5.1875
-36.590824 29.563417 5.1160021
-36.490005 29.661245 5.1497741
-35.948242 31.153179 5.1249685
-35.86916 31.369825 5.1444073
-35.787865 31.588223 5.1400123
-35.688896 31.860403 5.1422372
-35.589714 32.148872 5.1283469
-35.129463 33.387558 5.1492534
-35.040421 33.625786 5.1188884
-34.946247 33.876957 5.1233721
-34.863632 34.108879 5.1330347
-34.786194 34.313354 5.0968094
-34.736713 34.456692 5.1437593
-34.672104 34.637875 5.1137905
-34.209068 35.904453 5.1285295
-34.131207 36.11034 5.094058
-33.756866 37.120834 5.0984669
-33.727047 37.212357 5.1165733
-33.672295 37.360413 5.1458282
-33.579521 37.614365 5.1239719
-33.510315 37.798477 5.1485
-33.471889 37.907692 5.1433005
-33.383354 38.147289 5.1357112
-33.297935 38.396221 5.1477623
-40.634834 18.497833 5.3005004
-40.589046 18.636568 5.3771691
-40.553955 18.910488 5.3817801
-40.589012 19.094868 5.4050879
-40.598763 19.333788 5.3828473
-40.518139 19.55302 5.4006515
-40.466576 19.694601 5.3997455
-40.395939 19.883875 5.3762593
-40.313702 20.117598 5.3953247
-40.263855 20.254917 5.3923635
-39.772903 21.58942 5.3676023
-39.7187 21.738983 5.3980589
-39.672459 21.864519 5.3929563
-39.575653 22.127546 5.3957477
-39.508667 22.310585 5.393333
-39.467766 22.420677 5.3730669
-39.382019 22.653847 5.3846149
-39.296188 22.8866 5.3515124
-39.196503 23.160889 5.3809962
-39.106384 23.408834 5.4133062
-39.027596 23.623001 5.3847785
-38.51989 25.032112 5.391222
-38.470081 25.165396 5.3949895
-38.391899 25.374159 5.3643589
-38.293327 25.646246 5.375864
-38.20335 25.89254 5.3726878
-38.105953 26.158617 5.3606167
-38.027588 26.372238 5.3688622
-37.989151 26.477375 5.3895249
-37.926876 26.647263 5.4004288
-37.835739 26.886297 5.3487263
-37.773407 27.054075 5.3538795
-37.721832 27.199409 5.3940754
-37.208427 28.591736 5.3680277
-37.109791 28.860437 5.3599954
-37.025513 29.091816 5.3938942
-36.9813 29.207047 5.3731389
-36.910492 29.405832 5.3910928
-36.715126 29.451607 5.3913393
-36.783001 29.608501 5.3893337
-36.591946 29.582577 5.3750744
-36.479332 29.706715 5.4099202
-36.415443 29.886166 5.3865347
-35.962101 31.127359 5.3536301
-35.881901 31.351078 5.39043
-35.789783 31.599524 5.3919559
-35.696697 31.851566 5.3831601
-35.595932 32.125404 5.377738
-35.137943 33.376774 5.3705249
-35.034851 33.652088 5.3675799
-34.958004 33.863605 5.3733678
-34.865219 34.119877 5.362257
-34.783501 34.353752 5.3807917
-34.742058 34.46122 5.4021111
-34.682976 34.620388 5.3545022
-34.587429 34.884052 5.3552175
-34.14315 36.095638 5.3519158
-33.57925 37.629128 5.3706613
-33.509834 37.8265 5.3958335
-33.474426 37.917488 5.3993502
-33.395039 38.133816 5.3655562
-33.307781 38.371708 5.3756084
-40.639 18.499001 5.5380001
-40.602867 18.614893 5.6120825
-40.554302 18.873875 5.6129599
-40.587486 19.095831 5.6320848
-40.602226 19.340137 5.6317306
-40.51358 19.58297 5.6531062
-40.472679 19.690588 5.6279202
-40.397053 19.894947 5.6014004
-40.305721 20.148094 5.6183658
-39.78582 21.572144 5.617528
-39.71946 21.749464 5.5554619
-39.675499 21.87113 5.6121731
-39.576168 22.135302 5.6187801
-39.508041 22.319292 5.5965414
-39.471519 22.421749 5.6284723
-39.391777 22.642933 5.6318059
-39.298 22.899094 5.6427779
-39.21291 23.131165 5.6151223
-39.125256 23.370998 5.6260695
-39.032604 23.62644 5.6547985
-38.479801 25.150183 5.5890269
-38.408287 25.35144 5.6361933
-38.305519 25.631187 5.6257238
-38.264 25.750946 5.6911111
-38.207005 25.900553 5.608284
-38.118183 26.14082 5.6112757
-38.040257 26.356873 5.6520648
-37.997505 26.469501 5.5830002
-37.929874 26.653105 5.6186738
-37.856369 26.85264 5.6448088
-37.788048 27.036343 5.6490889
-37.725464 27.200958 5.640367
-37.207577 28.60808 5.6227808
-37.116005 28.857933 5.6042104
-37.029354 29.095137 5.6459632
-36.985928 29.20941 5.5893707
-36.923111 29.385862 5.6513028
-36.721142 29.458746 5.6214643
-36.764 29.592501 5.586875
-36.586189 29.587231 5.6309004
-36.483723 29.705694 5.6112776
-36.410675 29.91131 5.6344266
-36.004169 31.030334 5.6148338
-35.971355 31.119843 5.6438346
-35.887051 31.349932 5.6224055
-35.797699 31.590971 5.6141315
-35.740944 31.745674 5.5945415
-35.693703 31.878784 5.638423
-35.60313 32.125519 5.6280074
-33.445324 37.90844 5.6504912
-40.556492 18.875338 5.8411307
-40.634281 19.090258 5.8817339
-40.598644 19.359512 5.8688664
-40.517227 19.578089 5.8658891
-40.468079 19.710346 5.8694873
-40.3997 19.896053 5.8487206
-40.318958 20.116674 5.8649983
-40.269058 20.253752 5.8516388
-39.870995 21.350529 5.8675141
-39.783428 21.588793 5.8641319
-39.686756 21.85244 5.8539386
-39.587322 22.120668 5.8534937
-39.519714 22.305935 5.8800559
-39.484104 22.401783 5.8678346
-39.400826 22.629154 5.858747
-39.312706 22.871637 5.9059505
-39.210552 23.148579 5.8626318
-39.12059 23.396261 5.8612952
-39.034512 23.638451 5.9036126
-38.522053 25.049438 5.856699
-38.482147 25.158484 5.857111
-38.407112 25.362131 5.8731198
-38.31242 25.6227 5.8772354
-38.2649 25.75108 5.8904614
-38.210804 25.900919 5.8560681
-38.133526 26.11323 5.8725843
-38.044029 26.35738 5.8830833
-37.999748 26.470751 5.7957501
-37.941547 26.634142 5.8647838
-37.86063 26.854918 5.8921762
-37.781097 27.07103 5.8959584
-37.715836 27.244001 5.834167
-37.672531 27.362431 5.8825121
-37.508373 27.811251 5.8968749
-37.400307 28.106888 5.8942499
-37.306252 28.358465 5.8713055
-37.20137 28.640745 5.8643003
-37.101883 28.909441 5.8551803
-37.034084 29.098099 5.8968334
-36.998615 29.192057 5.8598886
-36.923161 29.379555 5.8933539
-36.706669 29.478199 5.869967
-36.750999 29.625 5.948
-36.641918 29.588211 5.8654857
-36.484867 29.714245 5.8348227
-36.414883 29.91251 5.8781428
-40.568825 18.875156 6.1220703
-40.614887 19.149641 6.1435213
-40.59687 19.37899 6.1066504
-40.518661 19.587711 6.0956631
-40.473866 19.71381 6.1304069
-40.405361 19.899012 6.1468272
-40.316532 20.146503 6.1323647
-40.21423 20.414249 6.1465373
-40.113556 20.649336 6.109045
-40.0536 20.850557 6.1308208
-39.946835 21.146976 6.144278
-39.787876 21.586082 6.1355953
-39.731396 21.744001 6.2434998
-39.687752 21.859062 6.1452923
-39.602093 22.092905 6.143012
-39.529274 22.29178 6.1499481
-39.488266 22.400536 6.1156836
-39.398365 22.642775 6.1441541
-39.3032 22.899673 6.1085
-39.220325 23.127712 6.146852
-39.128132 23.381199 6.1286149
-39.034073 23.639421 6.1092858
-38.958435 23.85272 6.1245112
-38.871944 24.094296 6.1307864
-38.790493 24.318872 6.1301403
-38.743591 24.447815 6.1472964
-38.598148 24.84453 6.1318288
-38.519127 25.067766 6.162096
-38.469643 25.177256 6.1706305
-38.408192 25.357317 6.1285605
-38.315472 25.619669 6.1259389
-38.242798 25.7276 6.2272005
-38.26712 25.753551 6.0976391
-38.205292 25.902159 6.1323233
-38.113384 26.121002 6.1529136
-38.047787 26.341213 6.1143274
-37.962566 26.417963 6.2222543
-37.903568 26.639288 6.1577725
-37.825844 26.857632 6.1378717
-37.738499 26.96925 6.2255001
-37.783897 27.054241 6.0829587
-37.690922 27.163477 6.1857414
-37.629166 27.360474 6.1331635
-37.56496 27.61187 6.1114931
-37.461899 27.642326 6.2060003
-37.509583 27.821583 6.072917
-37.411648 27.883312 6.1538982
-37.35717 28.112648 6.1235881
-37.188732 28.177155 6.2107778
-37.301842 28.328878 6.0790277
-37.159153 28.412334 6.1850853
-37.134815 28.628361 6.1196866
-37.074055 28.876221 6.0888882
-36.934135 28.886049 6.1945701
-37.03125 29.106813 6.0408125
-36.891647 29.133684 6.1564116
-36.860874 29.340899 6.1087813
-36.71714 29.446991 6.148283
-36.766945 29.637611 6.1293893
-36.629417 29.583181 6.1083479
-36.486111 29.720072 6.1062598
-36.381039 29.899424 6.1470842
-33.409 38.125999 6.2329998
-40.552277 18.880842 6.3787174
-40.591187 19.105043 6.387888
-40.594746 19.389643 6.3932443
-40.522831 19.593666 6.3519359
-40.483997 19.665924 6.3988523
-40.403145 19.876085 6.3956161
-40.304302 20.136421 6.3961287
-40.200016 20.391809 6.4141397
-40.116447 20.632355 6.386363
-40.046883 20.875626 6.3452978
-39.951374 20.877146 6.4724894
-39.888775 21.126017 6.4329581
-39.834751 21.353224 6.3973618
-39.658333 21.443668 6.4896669
-39.788033 21.586813 6.3266563
-39.65839 21.642687 6.4378066
-39.63039 21.865734 6.4004779
-39.482002 21.925167 6.4735003
-39.565601 22.117052 6.3548403
-39.442638 22.159184 6.4421601
-39.512573 22.34186 6.3298578
-39.402596 22.385366 6.3996854
-39.360645 22.626507 6.366323
-39.216312 22.644905 6.4593339
-39.293499 22.847929 6.3315082
-39.177624 22.927042 6.4138756
-39.127747 23.138617 6.3824534
-39.105793 23.354877 6.3157797
-38.940899 23.394352 6.444478
-39.034527 23.618498 6.2793908
-38.889385 23.605532 6.4129329
-38.855625 23.84198 6.3582063
-38.71286 23.963501 6.4628334
-38.815037 24.112467 6.3002939
-38.66573 24.135132 6.4184737
-38.792336 24.277668 6.2683334
-38.626003 24.363947 6.3780656
-38.497002 24.481001 6.4699998
-38.567364 24.623505 6.3466201
-38.46616 24.67001 6.4089112
-38.523605 24.874933 6.3519502
-38.429806 24.906586 6.3803511
-38.360485 25.112965 6.3655834
-38.238667 25.247335 6.4181671
-38.340031 25.347523 6.3665881
-38.205654 25.400454 6.3824863
-38.295612 25.586779 6.4148335
-38.128025 25.655643 6.3776078
-38.272671 25.753668 6.4946666
-38.116631 25.876499 6.3656826
-37.980461 25.959249 6.379375
-38.10775 26.126499 6.4245253
-37.938721 26.153912 6.3469963
-38.031898 26.391998 6.4667997
-37.865726 26.384809 6.3464112
-37.847534 26.598207 6.3772349
-37.718124 26.692057 6.3472419
-37.864223 26.858919 6.4582782
-37.677074 26.864231 6.3178596
-37.785225 27.07089 6.4517636
-37.593327 27.114244 6.3113751
-37.646633 27.342682 6.4075656
-37.466286 27.375744 6.3064604
-37.580112 27.645706 6.4324794
-37.385426 27.612564 6.2969317
-37.513145 27.880501 6.4730716
-37.388103 27.858969 6.3485804
-37.230667 27.957998 6.3123336
-37.410801 28.129976 6.4288917
-37.191021 28.117682 6.2874694
-37.314423 28.350935 6.4087667
-37.1073 28.343298 6.3063002
-37.273109 28.551334 6.4611111
-37.150169 28.655647 6.3630652
-36.983299 28.664568 6.2725334
-37.100842 28.908434 6.4023895
-36.930248 28.912251 6.2857857
-37.037308 29.108023 6.4036355
-36.810669 29.217999 6.2585001
-36.919682 29.382229 6.3867097
-36.710503 29.482233 6.3671327
-36.843033 29.559866 6.4254336
-36.612492 29.591963 6.3682637
-36.48341 29.745203 6.3574958
-36.412785 29.911783 6.3542414
-36.347206 30.114643 6.4154024
-34.875748 34.11425 6.41575
-34.754002 34.471001 6.3860002
-34.653 34.561001 6.4660001
-34.616802 34.807804 6.4008002
-34.529999 35.046997 6.4895
-33.344498 38.2705 6.3709998
-33.028667 39.183002 6.4334998
-40.605152 18.669102 6.6259675
-40.527073 18.88727 6.6426868
-40.606209 19.077871 6.5970569
-40.480152 19.166439 6.6559944
-40.544701 19.319494 6.5805554
-40.419609 19.390816 6.6109676
-40.355408 19.615486 6.5890288
-40.322582 19.85442 6.6142402
-40.213623 19.915731 6.6055713
-40.291 20.101501 6.7179999
-40.170975 20.135536 6.5726891
-40.286499 20.259501 6.73525
-40.110836 20.366251 6.6163435
-39.994499 20.4645 6.6149998
-40.113487 20.609661 6.6312523
-39.929974 20.649012 6.5897813
-40.047215 20.836739 6.6533246
-39.85947 20.878767 6.5685425
-40.018002 21.042288 6.7482862
-39.886009 21.108816 6.6427393
-39.689499 21.229 6.5950003
-39.87117 21.385111 6.6942773
-39.68158 21.363558 6.5750966
-39.792542 21.585375 6.6901875
-39.615223 21.643301 6.5823221
-39.641167 21.85169 6.6266379
-39.475327 21.860611 6.5514107
-39.600777 22.113064 6.6705651
-39.411549 22.132935 6.5503998
-39.531643 22.297001 6.6577148
-39.379601 22.385767 6.5964737
-39.38554 22.626675 6.6375794
-39.204407 22.662617 6.5275202
-39.316994 22.891052 6.6899881
-39.163818 22.917284 6.5486169
-39.260899 23.04525 6.6924005
-39.149097 23.116558 6.5886564
-38.978668 23.170334 6.5190005
-39.121258 23.391323 6.6189828
-38.91856 23.354445 6.5074449
-39.058105 23.630167 6.6468601
-38.933167 23.62125 6.5364165
-39.009666 23.832335 6.668334
-38.943218 23.860443 6.6010699
-38.883762 24.117966 6.6217928
-38.679001 24.142 6.5
-38.801682 24.369829 6.6680894
-38.744671 24.447166 6.5548334
-38.754669 24.540556 6.741889
-38.707069 24.639038 6.6344156
-38.609692 24.890211 6.610013
-38.543556 25.092796 6.6503453
-38.485363 25.17214 6.6419864
-38.413242 25.376747 6.6231284
-38.312492 25.64736 6.6144233
-38.276775 25.756447 6.6593332
-38.214298 25.912973 6.6323037
-38.138168 26.132389 6.636704
-38.059654 26.342941 6.6315918
-37.942207 26.65958 6.6173282
-37.865204 26.873415 6.6318655
-37.794323 27.125193 6.6418386
-37.738167 27.236832 6.746501
-37.752399 27.259199 6.6504998
-37.700848 27.414665 6.6237273
-37.629856 27.654776 6.6187263
-37.547028 27.840763 6.634059
-37.49107 27.958023 6.6410122
-37.450649 28.136568 6.6225142
-37.361042 28.360792 6.6284652
-37.30003 28.555838 6.6276765
-37.212868 28.698833 6.6024027
-37.114349 28.91246 6.6215653
-37.035728 29.131929 6.6389003
-36.933029 29.362358 6.6461716
-36.746216 29.478716 6.5937858
-36.82225 29.583168 6.5994997
-36.614822 29.596724 6.6353955
-36.4561 29.836098 6.6349406
-35.4925 32.385002 6.5804996
-34.790165 34.355667 6.6066666
-34.608997 34.830997 6.6073327
-34.549637 35.039722 6.6032019
-34.455498 35.193249 6.6002498
-33.123501 38.898834 6.6374917
-33.05006 39.135918 6.6821117
-33.007999 39.251999 6.5019999
-32.976238 39.322426 6.6185331
-40.540867 18.893623 6.8990889
-40.603966 19.101183 6.8373213
-40.616325 19.371405 6.8528266
-40.532383 19.601603 6.8489242
-40.497002 19.677 6.7670002
-40.433292 19.871529 6.8607621
-40.371101 20.121048 6.8650117
-40.294456 20.363298 6.8838038
-40.227005 20.453667 6.757555
-40.1992 20.635929 6.868638
-40.102951 20.865267 6.8818102
-40.032272 21.120502 6.8759818
-39.971298 21.219999 6.8042502
-39.916977 21.379709 6.8763046
-39.821339 21.589849 6.8684468
-39.74437 21.741556 6.8526301
-39.690849 21.888115 6.8564749
-39.61216 22.10198 6.8687053
-39.534077 22.315125 6.8728738
-39.481941 22.454535 6.8885336
-39.412033 22.646183 6.87428
-39.327053 22.879704 6.8690181
-39.267227 23.0425 6.8964443
-39.216835 23.179411 6.8606567
-39.14785 23.363281 6.8514862
-39.086147 23.599602 6.8809357
-39.03363 23.849607 6.8603907
-38.982712 23.934429 6.8788776
-38.922421 24.137794 6.8667316
-38.823376 24.360119 6.8753905
-38.770096 24.549652 6.9011531
-38.723083 24.682777 6.8899584
-38.644516 24.872784 6.8797874
-38.581779 25.067823 6.8762941
-38.491066 25.181934 6.8872671
-38.42411 25.363195 6.8634648
-38.329491 25.618895 6.8479257
-38.280075 25.757963 6.8574448
-38.220352 25.91967 6.8964076
-38.134544 26.152832 6.8820167
-38.054436 26.368513 6.8766475
-38.002724 26.509224 6.8548889
-37.956287 26.634972 6.8612947
-37.875492 26.855587 6.878952
-37.795261 27.084625 6.8902688
-37.76022 27.285395 6.9102244
-37.719231 27.422258 6.8514752
-37.654202 27.619053 6.8704147
-37.543331 27.866404 6.8801565
-37.492897 27.96859 6.894536
-37.46183 28.117437 6.8692389
-37.385689 28.33112 6.8820124
-37.283928 28.596029 6.8757324
-37.211147 28.721704 6.85813
-37.124084 28.90309 6.8531747
-37.037224 29.141287 6.8764772
-36.950825 29.378086 6.880157
-36.744335 29.488501 6.8948336
-36.851067 29.55221 6.8956771
-36.621639 29.612005 6.8446188
-36.449398 29.86688 6.8819761
-34.555141 35.03928 6.8365283
-34.4785 35.238754 6.8562498
-34.083 36.256001 6.9689999
-33.961502 36.660999 6.974
-32.942497 39.3395 6.8705001
-40.534035 18.904247 7.130507
-40.587723 19.086472 7.1255918
-40.623074 19.376564 7.1360211
-40.527237 19.637789 7.1369376
-40.444695 19.859425 7.1211414
-40.38826 20.108999 7.1471424
-40.316788 20.355537 7.1213055
-40.20763 20.639168 7.1334472
-40.107086 20.882423 7.127543
-40.030312 21.148424 7.1236911
-39.991501 21.189499 7.0959997
-39.931736 21.376276 7.1316214
-39.810661 21.612741 7.1344185
-39.748184 21.742668 7.144556
-39.693863 21.8948 7.1495428
-39.615074 22.106621 7.1364374
-39.526665 22.346823 7.136889
-39.481247 22.466127 7.0969496
-39.410995 22.661127 7.1341057
