# .PCD v0.7 - Point Cloud Data file format
VERSION 0.7
FIELDS x y z
SIZE 4 4 4
TYPE F F F
COUNT 1 1 1
WIDTH 67
HEIGHT 1
VIEWPOINT -18.2321 96.2205 -1.35163 -0.354149 -0.00701479 0.0211809 0.934923
POINTS 67
DATA ascii
62.859501 102.735 5.1125002
62.526997 102.90533 5.1335001
62.933914 102.70676 5.3685832
63.042999 102.62325 5.41225
62.463501 102.9725 5.3389997
62.610504 102.88333 5.3850837
62.795124 102.78587 5.3856254
62.952995 102.7086 5.6056004
63.041668 102.622 5.6426673
62.617336 102.89526 5.5961666
62.800671 102.79525 5.6348329
62.953083 102.71134 5.888917
63.049 102.63425 5.9177499
62.626945 102.90229 5.8606663
62.842247 102.78537 5.8865004
63.224998 102.441 6.1360002
62.957253 102.73275 6.0875001
63.048 102.63334 6.1490002
62.635353 102.90651 6.1080236
62.84 102.782 6.0795002
62.959 102.73608 6.3684173
63.0555 102.64525 6.3812499
62.643433 102.91888 6.375875
62.834503 102.81287 6.3601255
63.048573 102.68085 6.6489997
62.848873 102.81837 6.6293745
63.054401 102.70959 6.9121003
62.655251 102.93969 6.8757501
62.857288 102.82386 6.886929
63.045666 102.71217 7.0979996
62.639748 102.95451 7.1278749
62.890499 102.82876 7.1462502
63.019001 102.75 7.23
63.03767 102.72684 7.3626666
62.665569 102.95457 7.3829999
62.873417 102.83966 7.4004993
62.584503 103.0895 7.4095001
63.013 102.742 7.6500001
62.682251 102.9655 7.6370001
62.887505 102.84135 7.629786
63.021999 102.7565 7.6529999
62.570751 103.04613 7.627625
63.017754 102.74925 7.8842497
62.861427 102.88985 7.9109282
62.591 103.04012 7.8986254
63.016998 102.749 8.243
62.674 102.992 8.151
62.90107 102.87622 8.1449995
63.0205 102.755 8.1164999
62.511501 103.056 8.1067505
62.672001 102.991 8.3190002
62.877998 102.88743 8.3724766
63.022247 102.7585 8.3917503
62.510998 103.05566 8.3383331
62.667999 102.985 8.658
62.864128 102.907 8.6322498
63.022499 102.759 8.6240005
62.558167 103.05067 8.6586666
62.776001 103.002 8.7279997
62.672001 102.993 8.8260002
62.867748 102.88725 8.8145838
63.021999 102.759 8.8359995
62.228001 103.244 8.8290005
62.395248 103.14925 8.8357506
62.525166 103.05216 8.8456659
62.070999 103.335 8.8531656
62.515503 103.0655 9.0802498
