# .PCD v0.7 - Point Cloud Data file format
VERSION 0.7
FIELDS x y z
SIZE 4 4 4
TYPE F F F
COUNT 1 1 1
WIDTH 139
HEIGHT 1
VIEWPOINT -18.2321 96.2205 -1.35163 -0.354149 -0.00701479 0.0211809 0.934923
POINTS 139
DATA ascii
-68.249496 -49.7635 11.737
-68.041 -49.723 11.729
-67.827003 -49.421001 11.748
-69.455002 -48.556 11.681
-69.886665 -53.901669 11.978333
-69.93766 -53.653828 11.967834
-70.002998 -53.445 11.902
-69.974998 -53.403748 11.941999
-70.070168 -53.085831 11.885666
-69.843498 -53.118164 11.934834
-70.090927 -52.855286 11.907785
-69.779999 -52.969002 11.889
-69.702003 -52.91 11.939
-70.151672 -52.612961 11.899542
-69.585007 -52.743 11.9375
-68.826996 -51.600998 11.835
-68.604805 -51.593891 11.905305
-68.429504 -51.704666 11.933667
-68.903915 -51.384125 11.829082
-68.679794 -51.394798 11.9182
-68.560501 -51.219498 11.874
-69.859497 -50.73225 11.79225
-66.549004 -50.299 11.991
-66.444504 -50.384251 11.967751
-67.742996 -50.013 11.797
-67.614502 -49.814003 11.7695
-68.170998 -49.741001 11.761
-67.922501 -49.671501 11.7635
-67.612747 -49.546623 11.811
-67.41114 -49.60043 11.834786
-68.053665 -49.271084 11.841499
-67.879265 -49.374634 11.8599
-67.396797 -49.412998 11.889601
-69.295624 -48.379749 11.817125
-64.047165 -57.403584 12.209083
-63.969002 -57.381001 12.235
-63.608723 -57.442028 12.183612
-69.515999 -55.819 12.238
-69.542999 -55.64325 12.21725
-69.459999 -55.577 12.1965
-69.582253 -55.367622 12.217375
-69.334 -55.435001 12.241
-69.662094 -55.156605 12.1678
-69.141335 -55.151661 12.205334
-63.908001 -54.775002 12.17275
-64.089249 -54.582001 12.22425
-63.905499 -54.600998 12.183001
-63.725998 -54.411499 12.236
-69.727997 -54.09 12.103
-69.883499 -53.919498 12.0445
-69.757004 -53.648998 12.003
-69.625496 -53.601284 12.074822
-69.907379 -53.410625 12.042
-69.879501 -53.158501 12.035
-69.667999 -52.845497 12.03425
-70.123505 -52.689499 12.005
-68.436996 -51.683998 12.0465
-68.634003 -51.417999 12.038
-66.576004 -50.26667 12.041667
-66.369125 -50.411774 12.049292
-66.107002 -50.473999 12.009
-69.107002 -58.001999 12.498
-69.139496 -57.907501 12.485
-69.290001 -57.581001 12.444
-69.159332 -57.652164 12.478833
-69.203331 -57.427334 12.461666
-68.413002 -57.258999 12.472
-68.000999 -57.486 12.482
-64.164001 -57.272499 12.2535
-68.345001 -57.120998 12.462
-67.761002 -57.193001 12.489
-67.670998 -57.041 12.464
-67.341499 -57.212997 12.457001
-68.149002 -56.877998 12.492
-67.623001 -56.923 12.453
-68.317245 -56.55275 12.462749
-68.1185 -56.648499 12.462
-67.908997 -56.516998 12.443
-67.422997 -56.669998 12.454
-68.462494 -56.449501 12.4645
-67.830002 -56.3685 12.465
-67.267998 -56.459999 12.477
-67.151001 -56.284 12.444
-69.084167 -56.033665 12.365666
-67.650497 -56.137501 12.455999
-67.063499 -56.129997 12.4445
-69.530998 -55.754002 12.401
-69.423714 -55.849712 12.313429
-69.207375 -55.947124 12.379
-67.526001 -55.959999 12.45
-67.406502 -55.7785 12.453501
-66.913002 -55.924 12.448
-69.514 -55.740002 12.337
-69.47625 -55.630249 12.306749
-67.319 -55.623497 12.4195
-66.781502 -55.737499 12.4565
-66.6745 -55.569 12.4275
-69.358994 -55.455498 12.339
-69.225006 -55.27 12.29
-67.171494 -55.427002 12.4505
-66.581001 -55.413002 12.4305
-69.632561 -55.153168 12.271778
-69.150497 -55.133003 12.3435
-67.043999 -55.239502 12.419001
-69.697624 -54.911125 12.254499
-63.837624 -54.775002 12.306375
-63.878628 -54.653378 12.302876
-68.958496 -58.046753 12.603251
-69.108498 -57.8815 12.544
-68.814163 -57.811832 12.569
-69.153915 -57.648083 12.573833
-68.678001 -57.643501 12.59525
-69.207703 -57.409168 12.5604
-68.420502 -57.264999 12.569
-67.896004 -57.397999 12.527
-68.294502 -57.077999 12.547
-67.604752 -57.051083 12.574917
-67.393433 -57.165188 12.56925
-68.171997 -56.897499 12.5895
-67.579201 -56.917797 12.583799
-68.288498 -56.5495 12.5235
-68.042999 -56.709 12.556
-67.930496 -56.5355 12.5415
-67.377663 -56.632664 12.571666
-68.420998 -56.474251 12.5245
-67.780998 -56.327999 12.552
-67.185249 -56.351501 12.55025
-67.699997 -56.179001 12.559
-67.021004 -56.096001 12.53
-66.996002 -56.075001 12.588
-67.561005 -55.988998 12.549999
-67.427002 -55.796001 12.55
-66.887497 -55.903999 12.5375
-67.322495 -55.626499 12.5445
-66.773003 -55.730999 12.548
-66.651001 -55.549999 12.547
-67.182999 -55.437 12.547
-67.049004 -55.243999 12.514
-66.971001 -55.103001 12.537
