# .PCD v0.7 - Point Cloud Data file format
VERSION 0.7
FIELDS x y z
SIZE 4 4 4
TYPE F F F
COUNT 1 1 1
WIDTH 113
HEIGHT 1
VIEWPOINT -18.2321 96.2205 -1.35163 -0.354149 -0.00701479 0.0211809 0.934923
POINTS 113
DATA ascii
20.365067 82.345139 36.652733
20.51725 82.143753 36.856499
20.234835 82.477837 36.890167
20.397999 82.381187 36.862686
20.518 82.278 36.967999
20.39625 82.511749 36.901749
20.651083 82.110497 37.152332
20.239084 82.480759 37.096832
20.359949 82.423203 37.128399
20.5525 82.290001 37.097626
20.142752 82.667694 37.137169
20.397333 82.526001 37.138165
20.865 81.960999 37.479
20.657251 82.119141 37.37093
20.810249 82.108498 37.4505
20.353937 82.435532 37.35841
20.552916 82.301247 37.343334
20.148767 82.648209 37.368168
20.397999 82.53775 37.408501
20.906733 81.93837 37.631466
20.672918 82.114174 37.651028
20.8034 82.111801 37.636799
20.331465 82.453857 37.621822
20.553001 82.311874 37.601749
20.155167 82.6595 37.614334
20.399332 82.552002 37.608997
20.894066 81.957741 37.86837
20.681583 82.126328 37.88604
20.81646 82.113831 37.852417
20.401001 82.411362 37.830502
20.553083 82.321831 37.848164
20.151335 82.660545 37.861301
20.378389 82.544556 37.857113
20.904251 81.966377 38.144333
20.687584 82.138992 38.128292
20.810501 82.126282 38.122833
20.445 82.390129 38.106873
20.554111 82.336945 38.151669
20.159445 82.669357 38.111694
20.358999 82.542168 38.118389
20.903936 81.97506 38.3885
21.043001 81.866005 38.381832
20.632055 82.162056 38.348446
20.810625 82.108665 38.394711
20.444334 82.396912 38.352921
20.553875 82.347748 38.399876
20.174458 82.641396 38.343689
20.36875 82.557709 38.379917
20.942333 81.962334 38.654835
21.037601 81.879005 38.622902
20.664625 82.151688 38.669189
20.823286 82.083008 38.621002
20.443916 82.408249 38.643497
20.553751 82.355499 38.647499
20.202028 82.592918 38.637722
20.361668 82.55867 38.605667
20.942875 81.974121 38.904251
21.045801 81.8703 38.860603
20.632626 82.137436 38.858875
20.812584 82.092247 38.885166
20.188 82.487 38.813
20.401918 82.43042 38.880833
20.530167 82.313004 38.864498
20.150583 82.620758 38.844749
20.333376 82.548065 38.901127
20.943626 81.985123 39.088501
21.038097 81.899399 39.132698
20.663582 82.192085 39.103832
20.824814 82.137558 39.133686
20.44425 82.425499 39.105751
20.555723 82.383507 39.150112
20.233 82.575333 39.092251
20.3717 82.594299 39.125298
20.955612 81.992439 39.357166
21.045 81.8881 39.369896
20.6635 82.20256 39.351833
20.85239 82.093613 39.392113
20.444 82.435333 39.350002
20.560749 82.39225 39.394081
20.229582 82.591331 39.351665
20.343248 82.596077 39.3745
20.672882 82.209923 39.628288
20.85535 82.106323 39.629078
20.44375 82.445587 39.642918
20.550959 82.404335 39.621414
20.194834 82.663834 39.648502
20.328051 82.603821 39.622833
20.631334 82.237411 39.889168
20.849966 82.114815 39.868156
20.444 82.456497 39.894623
20.556999 82.417877 39.905373
20.20225 82.673874 39.896873
20.31525 82.607124 39.853123
20.634501 82.24025 40.101875
20.850679 82.121162 40.135998
20.443724 82.465782 40.146725
20.557125 82.425125 40.089375
20.2145 82.665871 40.126469
20.365625 82.633133 40.098751
21.014666 81.950005 40.326332
20.642668 82.241669 40.254333
20.856312 82.121536 40.379219
20.443251 82.474869 40.411251
20.586634 82.363945 40.3675
20.759501 82.2565 40.461502
20.207792 82.685883 40.373543
20.364555 82.639389 40.35022
21.020748 81.867371 40.608749
20.887785 82.094643 40.619354
20.4685 82.458 40.591751
20.5888 82.375305 40.624683
20.759251 82.262375 40.591877
20.390625 82.575562 40.607628
