# .PCD v0.7 - Point Cloud Data file format
VERSION 0.7
FIELDS x y z
SIZE 4 4 4
TYPE F F F
COUNT 1 1 1
WIDTH 812
HEIGHT 1
VIEWPOINT -18.2321 96.2205 -1.35163 -0.354149 -0.00701479 0.0211809 0.934923
POINTS 812
DATA ascii
0.15962501 67.202621 -2.8593125
0.35652855 67.231346 -2.8331501
0.091430567 67.231148 -2.6490166
0.71075004 67.192673 -2.6103334
0.36982861 67.255867 -2.6211498
0.58477002 67.261772 -2.6268599
-0.11368751 67.24398 -2.3890834
0.028999999 67.248001 -2.4389999
0.71100003 67.196754 -2.388
0.098095253 67.255943 -2.3340216
0.35780624 67.264343 -2.3673501
0.59391671 67.275459 -2.3553336
-0.11345834 67.258461 -2.1486666
0.089297622 67.268318 -2.101125
0.35732144 67.276421 -2.1185286
-0.1227 67.270851 -1.88635
0.086877786 67.286209 -1.8659916
-0.30500001 67.383751 -1.5972916
-0.10617857 67.358681 -1.6510357
0.096768528 67.367317 -1.6495
-0.32100001 67.428574 -1.3766071
-0.11300001 67.436455 -1.3539582
0.077510484 67.445717 -1.3712353
-0.75033331 67.420395 -1.1528889
-0.57287496 67.407379 -1.103375
-0.32999998 67.438126 -1.15632
-0.14496 67.448387 -1.10816
0.10226667 67.458107 -1.1256001
-0.54640001 67.105202 -0.85280001
-0.75722218 67.371887 -0.87711114
-0.63857144 67.381042 -0.82557857
-0.36098999 67.452988 -0.84755993
-0.13828667 67.456604 -0.90336001
0.086960316 67.467873 -0.85292071
-0.75430554 67.441002 -0.6311667
-0.58293337 67.446953 -0.63391668
-0.3395375 67.461182 -0.63609368
-0.11250001 67.470459 -0.64829165
0.090892859 67.482307 -0.60024703
0.35844761 67.491188 -0.61876667
0.47999999 67.5 -0.514
1.3501111 67.532196 -0.53638887
-0.75033331 67.454559 -0.35316667
-0.58379167 67.461243 -0.35329166
-0.3789762 67.470222 -0.37014288
-0.13202858 67.481514 -0.36146903
0.10034001 67.49099 -0.37165001
0.33829337 67.496658 -0.41793332
0.39827779 67.503502 -0.34491667
0.64331669 67.512093 -0.3989
0.87849998 67.520966 -0.39982086
1.0937667 67.53125 -0.37243333
1.3529167 67.541748 -0.35620368
-0.75016665 67.457169 -0.16516668
-0.61752003 67.463501 -0.099569999
-0.33468574 67.474953 -0.12415715
-0.11237501 67.483292 -0.089208335
0.12446394 67.493004 -0.11997245
0.26550001 67.494995 -0.23949999
0.35335714 67.505196 -0.12467857
0.64476669 67.516838 -0.14728889
0.88080835 67.528267 -0.14415
1.1178334 67.540756 -0.12746666
1.354225 67.552315 -0.097458333
-0.75351191 67.463432 0.11290477
-0.58121252 67.469177 0.105075
-0.33407143 67.47834 0.12341429
-0.11233333 67.487915 0.15195833
0.074914284 67.495255 0.12425239
0.33500001 67.499001 0.045000002
0.17199999 67.503754 0.171
0.34854048 67.509468 0.12197857
0.65596879 67.524323 0.12927084
0.88016671 67.53521 0.14466667
1.1192143 67.545258 0.12879285
1.3535001 67.557045 0.12478571
1.6454062 67.571846 0.13975
-0.75027776 67.469505 0.35305557
-0.58366674 67.475914 0.35312501
-0.35925001 67.474342 0.36065623
-0.13600001 67.451698 0.40885001
0.092177778 67.44278 0.42838892
0.34736112 67.460075 0.43125001
0.61574996 67.466995 0.43594998
0.8403334 67.463448 0.44963893
1.1275001 67.46875 0.46675
1.3410001 67.467751 0.47375
0.10944444 67.502342 0.31622222
0.37773335 67.514511 0.30741668
0.64622217 67.517021 0.34894443
0.88115001 67.52034 0.3777875
1.0913404 67.533707 0.36414048
1.3539667 67.546089 0.35545629
1.6252595 67.555 0.37246433
-0.75033331 67.474915 0.58866668
-0.60780209 67.482162 0.65440613
-0.35967502 67.452408 0.63269168
-0.11497223 67.421448 0.5686112
0.092249997 67.40844 0.53525001
0.35949999 67.42894 0.54449999
0.64088893 67.447617 0.54922223
0.89137501 67.442871 0.53737503
1.11625 67.454254 0.53712499
1.3513333 67.453499 0.52824998
-0.75364286 67.485855 0.90207148
-0.58225 67.491325 0.90362501
-0.33431429 67.440414 0.88174522
-0.514 67.500999 0.99699998
-0.417 67.501999 0.94499999
-0.63084263 67.431633 1.1478425
-0.35943002 67.42363 1.1436584
-0.186 67.453667 1.1295
-0.79666662 67.4925 1.4508333
-0.61543339 67.494438 1.3808
-0.34933332 67.498009 1.3518888
-0.514 67.501335 1.3736666
-0.35425001 67.503166 1.3706563
-0.79990274 67.495781 1.633625
-0.64866668 67.497665 1.622
-0.62056667 67.501991 1.6071001
-0.33344287 67.507301 1.61985
-0.84299999 67.494003 1.842
-0.78749996 67.502869 1.8724667
-0.58339173 67.505791 1.8595167
-0.3601 67.510307 1.8643624
-0.84299999 67.496002 2.125
-0.79683328 67.505135 2.1461945
-0.58445835 67.511002 2.1447084
-0.35987499 67.515846 2.1314898
-0.84299999 67.495667 2.3363333
-0.79700005 67.504089 2.3467503
-0.61747998 67.511925 2.4006584
-0.33475 67.521141 2.3795285
-0.84399998 67.499001 2.5009999
-0.79892266 67.50914 2.615726
-0.58340001 67.515663 2.6073
-0.33492854 67.524925 2.6224425
-0.79758334 67.51181 2.8541667
-0.58470833 67.520424 2.8528335
-0.35977498 67.527809 2.862
-0.60915917 67.522041 3.1548645
-0.36103752 67.532417 3.1331789
-0.5829125 67.525665 3.4070001
-0.33465716 67.535782 3.3836215
-0.59504998 67.530441 3.6370499
-0.33810005 67.538948 3.6354251
-0.57615006 67.538101 3.8649998
-0.36285716 67.544144 3.8788333
-0.61980283 67.540405 4.0990515
-0.36247858 67.551201 4.1175761
-0.60542142 67.545128 4.3726926
-0.3390125 67.554787 4.3666248
-0.098500006 67.596275 4.3573332
-0.63430554 67.549278 4.6501946
-0.33811873 67.559387 4.6337252
-0.097268514 67.58493 4.639185
-0.63458329 67.552254 4.8873754
-0.36450714 67.561966 4.8753858
-0.11504167 67.57225 4.9000835
-0.63572508 67.555458 5.0991921
-0.33684999 67.565964 5.1232119
-0.1155 67.573868 5.1134377
-0.63490003 67.560104 5.3606505
-0.36388126 67.56945 5.36625
-0.11587501 67.57737 5.3508334
2.8903549 67.730408 5.3797479
3.1083252 67.748123 5.459125
3.467 67.748001 5.3920002
3.5832384 67.617134 5.378036
3.2463336 67.753006 5.4630003
3.3959999 67.750748 5.4516249
3.6118333 67.754997 5.3655
-0.63586116 67.564194 5.6472502
-0.36323121 67.570343 5.6335688
-0.11721667 67.581451 5.6384921
0.12913945 67.593597 5.6315188
2.8961334 67.736336 5.6314173
3.1201 67.744797 5.6365499
3.2556832 67.749115 5.6460662
3.5744166 67.601364 5.5888004
3.4042931 67.75399 5.6305304
3.6113331 67.761002 5.6521664
-0.63703328 67.563133 5.8868413
-0.34020713 67.573967 5.8779144
-0.115625 67.585266 5.9059877
0.16566429 67.596329 5.8743634
2.6348612 67.727051 5.8490276
2.91869 67.739395 5.8703938
3.1003001 67.746254 5.8670502
3.5827978 67.598343 5.8685832
3.347893 67.754181 5.8848929
3.6110001 67.763748 5.8910003
-0.63666672 67.56826 6.0988331
-0.35158753 67.578224 6.1386313
-0.117 67.58725 6.1118126
0.1334164 67.598358 6.1321421
0.35731876 67.607498 6.1321378
2.6219141 67.727196 6.1136789
2.9203312 67.73822 6.1256242
3.10074 67.74543 6.1177797
3.2532499 67.749756 6.1432495
3.5824645 67.605461 6.1416311
3.3633754 67.755089 6.1120834
3.6107779 67.76339 6.1370559
-0.63681668 67.573936 6.3595996
-0.35404286 67.583801 6.3817582
-0.10841667 67.591621 6.366262
0.10899443 67.599976 6.3706055
0.35525712 67.608864 6.382607
0.6401667 67.62381 6.3934836
2.1211164 67.706772 6.3773332
2.3478277 67.714317 6.3532667
2.6344497 67.727028 6.3541641
2.8769245 67.735435 6.3860688
3.11778 67.7453 6.3779397
3.2522502 67.747749 6.4530001
3.5749581 67.621086 6.3797498
3.2478001 67.750397 6.2500005
3.3796418 67.755348 6.3642421
3.6099999 67.762001 6.41575
-0.63813889 67.579994 6.6473331
-0.36499378 67.585571 6.6336188
-0.10981666 67.595451 6.6405635
0.070662498 67.601929 6.6329751
0.35423574 67.614723 6.6228142
0.63975716 67.62709 6.6217575
0.91184998 67.637871 6.5910463
1.1440972 67.653992 6.6191249
1.3632293 67.681198 6.6421041
1.57985 67.676003 6.6303
1.864548 67.689323 6.6150808
2.128283 67.699684 6.6494584
2.3358438 67.707863 6.6314583
2.6166501 67.719994 6.5975494
2.8821805 67.730728 6.6350274
3.11815 67.740547 6.6381502
3.2987504 67.747009 6.597208
3.5709722 67.613441 6.6078892
3.3703127 67.751747 6.6026874
3.6094999 67.760506 6.6072502
-0.63837498 67.581543 6.8855
-0.34148571 67.588455 6.8767219
-0.10252222 67.599327 6.8878531
0.11915238 67.609673 6.8686571
0.35549372 67.622162 6.863656
0.63931876 67.633781 6.8709755
0.91270632 67.64312 6.8544006
1.1026599 67.652321 6.8657503
1.3633214 67.663643 6.8709641
1.6233011 67.675362 6.8810678
1.894976 67.687195 6.8505359
2.1216905 67.696693 6.8779044
2.3596308 67.708565 6.875762
2.5852499 67.717712 6.8495002
2.8604271 67.730171 6.864017
3.098 67.740646 6.86905
3.2989333 67.746277 6.8580666
3.5699072 67.62056 6.8558154
3.4398499 67.751762 6.8544335
3.609 67.758667 6.8458333
-0.82830554 67.583832 7.1371388
-0.62595004 67.585587 7.1198502
-0.34669286 67.592392 7.1198807
-0.147 67.60392 7.1118751
0.1188962 67.616562 7.1263208
0.35446873 67.627777 7.1309376
0.62575006 67.638786 7.1212854
0.91013336 67.649902 7.1067128
1.1040199 67.654861 7.1276598
1.3631643 67.665268 7.1153045
1.5984201 67.678162 7.12324
1.8775939 67.69059 7.1331196
2.1161573 67.6996 7.1320648
2.3440666 67.708397 7.0999246
2.5847003 67.719215 7.1409249
2.8619597 67.730904 7.1469216
3.1080334 67.741348 7.1387334
3.2820835 67.747337 7.0830002
3.5677223 67.625046 7.1413336
3.3768749 67.752296 7.1789169
3.6088333 67.759163 7.1329994
-0.80500001 67.594246 7.439167
-0.63643146 67.592873 7.3847332
-0.36515129 67.60009 7.3626637
-0.11958333 67.611702 7.35325
0.095386669 67.619705 7.3717232
0.35263571 67.634872 7.3779564
0.65064377 67.646996 7.3568063
0.91084725 67.655739 7.3491807
1.1441666 67.665413 7.3545246
1.3491213 67.674812 7.3865933
1.6043252 67.687508 7.3923497
1.8682779 67.695839 7.3918891
2.102273 67.70269 7.3519583
2.3459668 67.714325 7.3538003
2.5856001 67.725853 7.4028625
2.8604085 67.737907 7.3982334
3.0908167 67.744957 7.3773003
3.2006249 67.751427 7.409575
3.3649399 67.757431 7.4039702
3.6080003 67.765755 7.4095001
-0.80400002 67.305 7.5999999
-0.63644451 67.465309 7.6328893
-0.35291663 67.472801 7.635778
-0.12025 67.483002 7.6490002
0.10558333 67.487747 7.6257501
0.25749999 67.487999 7.6335001
-0.82166666 67.535004 7.5450001
-0.64106947 67.55986 7.6401386
-0.37242857 67.554321 7.6387382
-0.13721429 67.547462 7.6281781
0.082138889 67.567986 7.6093335
0.35544449 67.575012 7.6040277
1.8899488 67.65538 7.6239638
2.1448712 67.638557 7.6428037
2.3732221 67.666092 7.6128979
2.6208 67.660942 7.6037993
2.8983834 67.684723 7.6139255
3.1648145 67.696053 7.6222854
3.3800464 67.699913 7.6076736
3.4400001 67.758743 7.7452497
-0.80800003 67.592003 7.9650002
-0.6306591 67.600372 7.8764086
-0.35767591 67.613129 7.8523235
-0.12066666 67.62281 7.8441944
2.6074765 67.735558 7.8433456
2.8416505 67.744385 7.8359003
2.9301331 67.75177 7.9141173
3.1063335 67.75721 7.8568339
3.3439286 67.768921 7.8836069
3.608 67.780495 7.9022503
-0.82716668 67.595482 8.1541042
-0.64945275 67.601524 8.1321259
-0.37132856 67.616432 8.1154356
0 67.648331 8.1495008
2.6385183 67.743736 8.1465092
3.5620499 67.637405 8.1374998
2.9061501 67.755394 8.1260004
3.1264644 67.763748 8.1470356
3.3641601 67.773903 8.0967312
3.607167 67.782166 8.1429996
-0.65345001 67.607491 8.3739815
-0.34514374 67.622765 8.3671246
-0.11152222 67.633469 8.3587952
2.6149833 67.746712 8.3796301
3.5704999 67.58638 8.3876247
2.748143 67.752861 8.4467154
2.9255099 67.761665 8.3687096
3.1671786 67.773033 8.3703222
3.3911667 67.780083 8.3499174
3.5813751 67.769623 8.3863745
0.18650001 68.033493 8.3857498
-0.64287502 67.612495 8.6100416
-0.34603572 67.624039 8.6224213
-0.11066666 67.639473 8.6462078
2.5847502 67.749252 8.5488491
3.5796664 67.615837 8.6216383
2.6575139 67.754845 8.6652784
2.9243598 67.768082 8.6265202
3.1399212 67.778191 8.6128569
3.3875668 67.78804 8.6432676
3.5897224 67.781334 8.5708332
0.18588889 68.045166 8.6365004
-0.64352775 67.618637 8.85075
-0.37103122 67.628128 8.8596563
-0.08600001 67.646019 8.8896503
3.4876251 67.626747 8.7996254
3.582917 67.613335 8.888917
0.11143 67.923187 8.8701496
2.6170251 67.756828 8.8930168
2.879637 67.771828 8.8733091
3.1636937 67.784248 8.8719931
3.4027832 67.790207 8.9030333
3.5914998 67.791214 8.8993578
0.185 68.050003 8.9195004
-0.64427781 67.623672 9.1396112
-0.37190628 67.6362 9.1340513
-0.077074997 67.652367 9.1258669
3.5697501 67.604874 9.1107502
0.1097 67.926704 9.1290998
2.6355083 67.760872 9.1090288
2.9137084 67.777168 9.1481667
3.1648097 67.789391 9.1271076
3.3655739 67.799835 9.1289806
3.5858002 67.792999 9.1013002
0.20066667 68.070831 9.1433334
-0.64512497 67.631248 9.3857508
-0.34822145 67.640854 9.3763866
-0.10045048 67.653992 9.3751354
3.5699167 67.61834 9.3529997
0.094500005 67.905205 9.3649502
2.6362224 67.765015 9.3520555
2.9117248 67.780403 9.3987989
3.1231191 67.787788 9.3517742
3.3567436 67.799767 9.3827839
3.5799167 67.792412 9.3530836
0.20320001 68.069199 9.3710003
-0.63277143 67.631599 9.6270428
-0.34669283 67.643944 9.6223288
-0.089250006 67.661545 9.6098747
3.4989998 67.669334 9.6408339
3.5833001 67.611496 9.6233997
0.093983337 67.911133 9.6218004
2.6356573 67.773796 9.6428337
2.9040999 67.787621 9.6255798
3.1491919 67.795151 9.6419172
3.3588474 67.802895 9.6095552
3.579417 67.798668 9.6436663
0.18300001 68.056999 9.645833
-0.65807498 67.634247 9.8729935
-0.37314999 67.646904 9.8655815
-0.088252783 67.666115 9.8507442
3.4990001 67.678253 9.8829994
3.638 67.568756 9.8850002
0.10668 67.939789 9.8825293
2.6145165 67.776848 9.878233
2.9004879 67.792397 9.8938208
3.1385 67.800186 9.8798895
3.3692858 67.809341 9.8365602
3.5785 67.800629 9.8858747
0.1825 68.056 9.8885002
-0.65956247 67.638847 10.140656
-0.40110001 67.649002 10.135099
-0.13441665 67.6651 10.1405
3.4984443 67.682716 10.133611
3.6364164 67.557999 10.087917
0.091950007 67.914406 10.14525
2.5805669 67.77932 10.127646
2.8755016 67.791779 10.134197
3.1197457 67.801521 10.123377
3.3888252 67.815712 10.142358
3.5784168 67.807335 10.086334
0.16388889 68.037338 10.147918
-0.63460714 67.645103 10.375321
-0.42049998 67.652504 10.36955
-0.13447699 67.670677 10.386765
3.4974999 67.69075 10.417
3.6356666 67.556671 10.365833
0.067944445 67.874306 10.413222
2.6012619 67.785965 10.371814
2.8729305 67.798485 10.398007
3.1412752 67.808212 10.363276
3.3871875 67.820244 10.395312
3.5774724 67.807251 10.367223
0.16029999 68.041351 10.395825
-0.6459167 67.647964 10.636518
-0.38955614 67.659935 10.627357
-0.10314115 67.678108 10.645452
3.4972501 67.696747 10.630125
3.635 67.552002 10.594999
0.068911113 67.876762 10.568044
2.6083388 67.793427 10.617839
2.8761787 67.805466 10.626393
3.1628573 67.819824 10.629501
3.3963501 67.8265 10.621751
3.5766249 67.808372 10.614
0.15700001 68.040756 10.609
-0.65026671 67.652275 10.8851
-0.4142125 67.665115 10.887001
-0.13652083 67.682144 10.901167
3.4964998 67.694748 10.8845
3.6046667 67.606003 10.920834
0.060749996 67.872414 10.856584
2.6031981 67.799347 10.869646
2.8502502 67.812721 10.862939
3.1365626 67.823837 10.866844
3.3765666 67.832291 10.8757
3.5758336 67.809837 10.852917
0.15625 68.044746 10.85275
-0.61910832 67.658501 11.136742
-0.41126251 67.668877 11.1018
-0.11177084 67.68853 11.111604
3.4963334 67.709496 11.147334
3.6321666 67.541328 11.137833
0.067833334 67.880829 11.14325
2.5748069 67.802475 11.125911
2.8487687 67.816544 11.135569
3.1485786 67.827171 11.119858
3.3843625 67.837646 11.105713
3.5720713 67.821144 11.133786
0.15516667 68.049583 11.146251
-0.66329378 67.660721 11.373749
-0.36011112 67.675529 11.355509
-0.068601854 67.696487 11.354666
3.49575 67.710503 11.391001
3.6315 67.536003 11.379499
0.061041668 67.879791 11.342501
2.6235168 67.810318 11.367666
2.8741786 67.821922 11.375464
3.1471877 67.833405 11.362844
3.3851669 67.844337 11.359333
3.5695 67.814705 11.369501
0.19955 68.094948 11.372362
-0.65279168 67.664047 11.610374
-0.34595957 67.678246 11.624115
-0.069499999 67.693619 11.645935
3.4951668 67.718666 11.635834
3.6305001 67.538422 11.610332
0.055849999 67.863129 11.591551
2.6109724 67.816261 11.640847
2.8606312 67.828239 11.630375
3.1464443 67.839279 11.643249
3.3843124 67.84906 11.603937
3.5675001 67.818062 11.626688
0.19801667 68.091698 11.610379
-0.65372223 67.666893 11.854027
-0.37562501 67.678726 11.864178
-0.068750001 67.695831 11.890834
3.494 67.723747 11.88
3.6286666 67.528168 11.863999
0.086300001 67.916199 11.8819
2.6119466 67.820457 11.893545
2.8587856 67.835518 11.874922
3.1458747 67.847084 11.8885
3.3836253 67.854622 11.849167
3.569 67.825836 11.883499
0.20531945 68.107903 11.852237
-0.62760723 67.67157 12.133928
-0.35028124 67.684906 12.13001
-0.07570833 67.69828 12.121583
3.4937775 67.732613 12.134223
3.6289999 67.548752 12.11125
0.074249998 67.901497 12.125813
2.6210999 67.821312 12.123983
2.8714929 67.836906 12.118629
3.1336875 67.850227 12.125382
3.3827083 67.858215 12.143125
3.5681667 67.829216 12.10798
0.19435 68.102753 12.129199
-0.60825002 67.67894 12.393375
-0.37923983 67.689842 12.37446
-0.10163333 67.703705 12.393547
3.493 67.743744 12.421749
3.6268332 67.521332 12.349334
0.055 67.889374 12.39575
2.59586 67.826401 12.367428
2.8463125 67.841705 12.366055
3.1566999 67.85228 12.379171
3.3820624 67.858307 12.388
3.5600669 67.815598 12.386017
0.20765002 68.121994 12.3695
-0.799375 67.674835 12.637792
-0.60933334 67.684288 12.638625
-0.38187501 67.694565 12.644375
-0.11298913 67.709167 12.599462
3.493 67.748505 12.569
3.6258335 67.525002 12.643333
0.054375008 67.899078 12.599501
2.6179142 67.829422 12.631186
2.857625 67.841331 12.605367
3.1434667 67.854118 12.607865
3.3926585 67.84684 12.6303
3.5665834 67.829086 12.622292
0.18828124 68.110497 12.627468
-0.80049998 67.678314 12.882812
-0.60075003 67.693405 12.89525
-0.41418749 67.702888 12.863193
-0.14866874 67.715973 12.869856
3.6252499 67.53775 12.89025
0.053444445 67.908562 12.848862
2.5951335 67.835526 12.875951
2.856111 67.846748 12.858
3.1425829 67.85997 12.862333
3.4284377 67.828026 12.865688
3.5663002 67.830917 12.840517
0.18124667 68.072548 12.86561
-0.81110001 67.682648 13.158949
-0.62338811 67.693916 13.089798
-0.41079363 67.7071 13.139621
-0.13958889 67.723061 13.111623
0.027000001 67.748993 13.172501
3.6243334 67.534668 13.134334
0.083166666 67.920219 13.105167
2.6146998 67.842102 13.098775
2.8688571 67.855568 13.125572
3.155643 67.866539 13.129036
3.4047856 67.84343 13.116323
3.5631666 67.830391 13.120639
0.20394444 68.073227 13.105348
-0.80385 67.690254 13.390274
-0.62014586 67.700287 13.360031
-0.4052 67.714081 13.396216
-0.13922222 67.728607 13.364249
0.03875 67.742752 13.3575
3.6240001 67.545746 13.38125
0.12304167 67.89032 13.363073
2.6185086 67.853645 13.357742
2.8425624 67.862808 13.36575
3.1292813 67.874565 13.370625
3.4269373 67.840126 13.359812
3.5687497 67.854088 13.359666
0.22375 68.070755 13.30475
0.35065836 68.11779 13.368017
-0.81225002 67.692711 13.599367
-0.65554732 67.706177 13.616959
-0.40026665 67.726128 13.633034
-0.14020833 67.734497 13.611209
0.049875002 67.746628 13.595375
3.6221111 67.539833 13.634334
0.17928125 67.839844 13.613729
0.28600001 67.931252 13.710001
2.6073997 67.86235 13.6359
2.8658123 67.875069 13.637563
3.154393 67.885818 13.625392
3.4073 67.869743 13.631644
3.5773335 67.877419 13.617583
0.37840626 68.090485 13.63273
-0.81120718 67.701904 13.881978
-0.61479169 67.716591 13.859292
-0.37755713 67.733948 13.879631
-0.1533125 67.74131 13.846531
3.6210001 67.542252 13.921499
-0.045249999 67.751999 13.95775
0.140875 67.761909 13.865031
0.35228702 67.86628 13.879482
0.50099999 67.976997 13.959
2.3996167 67.861603 13.869684
2.6255002 67.872147 13.8775
2.8396785 67.882607 13.879144
3.140028 67.893639 13.876111
3.415889 67.860901 13.865768
3.5676668 67.875671 13.856999
0.43166667 68.053833 13.798166
0.59058613 68.116882 13.894104
-0.80631244 67.710938 14.117813
-0.60644996 67.722549 14.134649
-0.39045835 67.738274 14.108666
-0.2395 67.746124 14.104375
3.6216667 67.566612 14.156278
-0.093874998 67.754623 14.108625
0.15403125 67.769562 14.134626
0.59750003 67.904335 14.164611
2.3750167 67.868507 14.125616
2.60585 67.878098 14.13325
2.8732316 67.894058 14.136852
3.1397221 67.905914 14.109268
3.4056935 67.885506 14.134844
3.5613999 67.870705 14.0945
0.67233336 68.084969 14.061132
-0.80741662 67.717339 14.365791
-0.62685001 67.727951 14.376849
-0.42114583 67.742416 14.330957
-0.33249998 67.753372 14.409124
-0.14363888 67.761719 14.35636
0.12753572 67.778641 14.3795
0.38962501 67.789665 14.392292
2.1517501 67.870247 14.382571
2.3980668 67.880905 14.368283
2.6490521 67.895065 14.384718
2.8439896 67.906082 14.364291
3.1273437 67.925186 14.369219
3.4245715 67.877174 14.372037
3.5644722 67.912743 14.357472
-0.80862498 67.727875 14.615126
-0.60889995 67.737846 14.63175
-0.45225 67.745918 14.602834
-0.33350003 67.757378 14.608125
-0.14483334 67.768501 14.604917
0.1516875 67.788498 14.633281
0.40523958 67.798836 14.629261
0.60599995 67.807602 14.631351
0.86569518 67.821373 14.625227
1.1460077 67.867172 14.626705
1.39 67.864296 14.628042
1.6145835 67.853874 14.642333
1.8494062 67.867653 14.630688
2.1371071 67.882774 14.623579
2.4077499 67.896317 14.65922
2.6008611 67.905762 14.623249
2.8632185 67.920029 14.636687
3.1522143 67.937462 14.626249
3.4149165 67.879333 14.613693
3.5588002 67.865906 14.6281
-0.81550002 67.732857 14.788278
-0.70368749 67.744812 14.862125
-0.58807862 67.752769 14.919669
-0.386125 67.763016 14.85989
-0.14608333 67.777077 14.85464
0.12182143 67.791466 14.878214
0.34857291 67.802155 14.888394
0.62410003 67.816147 14.874249
0.83828127 67.829117 14.866093
1.1364166 67.845375 14.891418
1.4090596 67.856277 14.88964
1.6135 67.864815 14.89275
1.8488214 67.87764 14.874394
2.1249282 67.892319 14.843573
2.385762 67.909225 14.879476
2.62275 67.920601 14.878901
2.8369641 67.93261 14.880858
3.1261251 67.951622 14.871437
-0.59710002 67.760468 15.129267
-0.383625 67.773056 15.111938
-0.14716667 67.783417 15.104042
0.13160416 67.801003 15.139792
0.39073336 67.814522 15.145406
0.60399997 67.825554 15.1315
0.86321419 67.839607 15.121714
1.1369444 67.85553 15.142583
1.4099973 67.868362 15.13926
1.6127501 67.879082 15.144417
1.8574075 67.891937 15.134083
2.102639 67.90303 15.094343
2.3672998 67.921631 15.148002
2.6128125 67.931061 15.108687
2.85025 67.945915 15.103291
3.1376667 67.964081 15.109291
-0.38479164 67.783379 15.362793
-0.14100759 67.797211 15.357892
0.12409524 67.811539 15.380309
0.40933335 67.827377 15.391459
0.62195003 67.837906 15.3762
0.83600003 67.847717 15.367187
1.08675 67.863129 15.397562
1.3637918 67.87841 15.389165
1.6444029 67.894203 15.394252
1.8595647 67.904999 15.363388
2.0783501 67.9189 15.3669
2.3785951 67.933449 15.379989
2.6108472 67.944977 15.350999
2.8496943 67.958664 15.355389
3.1366947 67.972168 15.360667
-0.37218058 67.796593 15.624458
-0.14583336 67.80854 15.611917
0.1218 67.825722 15.614841
0.37722144 67.839806 15.643783
0.60170001 67.849808 15.634801
0.86089289 67.865288 15.625571
1.0872778 67.878075 15.639249
1.357287 67.893082 15.635018
1.6185207 67.904648 15.618979
1.8462082 67.914749 15.599999
2.09605 67.928757 15.6248
2.3472023 67.941292 15.619798
2.62075 67.958801 15.630301
2.8488333 67.971214 15.607917
3.1463571 67.988472 15.632036
-0.38745832 67.806328 15.8705
-0.15094444 67.818695 15.858998
0.074963339 67.832893 15.868967
0.36432144 67.850449 15.87794
0.64124995 67.864922 15.894417
0.84582144 67.874214 15.859036
1.11604 67.889786 15.898669
1.3688241 67.904144 15.861464
1.6579524 67.917488 15.870597
1.8932085 67.930244 15.859792
2.07655 67.939651 15.87115
2.3761668 67.955826 15.868447
2.6249166 67.970505 15.871944
2.8597813 67.980873 15.856063
3.0875416 67.994293 15.85982
3.1992335 68.004799 15.892982
-0.39691666 67.817787 16.137899
-0.152375 67.83091 16.111874
0.10891666 67.847305 16.15793
0.37716666 67.860817 16.133646
0.65549999 67.875755 16.112541
0.90275002 67.888596 16.136101
1.138175 67.901459 16.138285
1.4067 67.914246 16.129248
1.6671876 67.928627 16.127438
1.8920001 67.941002 16.112625
2.1202223 67.954933 16.149263
2.3600557 67.964867 16.100945
2.6362998 67.9823 16.134201
2.8429167 67.99054 16.098291
3.0135 67.996254 16.064999
2.9423332 68.001335 16.210167
3.1396356 68.010918 16.138241
-0.36712497 67.616371 16.493876
-0.10574999 67.647751 16.49325
0.16149999 67.680328 16.493334
0.36699998 67.693497 16.494499
0.65133333 67.693329 16.493999
0.89999998 67.699501 16.494751
1.388 67.741997 16.496
-0.33834028 67.807549 16.367693
-0.121925 67.814087 16.384142
0.12019721 67.816948 16.40473
0.39655116 67.827713 16.42131
0.65408331 67.863312 16.360056
0.88044995 67.871208 16.379391
1.1246296 67.867622 16.386229
1.4251249 67.883049 16.398149
1.6178751 67.89344 16.401846
1.8744166 67.897255 16.388668
2.1136296 67.913246 16.403564
2.4088571 67.942734 16.377857
2.6161876 67.953377 16.387875
2.8644693 67.977867 16.378687
3.1057668 67.981796 16.445717
3.3621111 67.987778 16.372723
2.8473749 68.003502 16.300251
3.1338668 68.013039 16.337801
3.3830032 68.021797 16.398829
1.0802083 67.658142 16.604876
1.3600523 67.668556 16.600077
1.6656481 67.682686 16.580769
1.8874723 67.680191 16.569168
2.0957336 67.694839 16.555599
2.3590279 67.706253 16.570436
2.6272285 67.712532 16.577929
2.87112 67.724602 16.582525
3.1470001 67.736664 16.574516
3.3565001 67.738495 16.6045
1.1451249 67.80687 16.620251
1.6736 67.813095 16.6285
2.1165001 67.836601 16.625935
2.6635416 67.828362 16.611145
2.8839722 67.844856 16.603361
3.0851943 67.814499 16.628832
