# .PCD v0.7 - Point Cloud Data file format
VERSION 0.7
FIELDS x y z
SIZE 4 4 4
TYPE F F F
COUNT 1 1 1
WIDTH 87
HEIGHT 1
VIEWPOINT -18.2321 96.2205 -1.35163 -0.354149 -0.00701479 0.0211809 0.934923
POINTS 87
DATA ascii
22.92 -14.693 11.984
22.802883 -14.282322 11.997476
22.724001 -14.165 11.963
22.908213 -14.137509 11.983664
23.113653 -14.149057 11.994752
23.369835 -14.118 11.998
23.621 -14.0575 11.997999
23.860783 -14.093906 11.99775
23.152096 -13.89207 11.97746
23.345928 -13.830267 11.986147
23.6525 -13.839861 11.991459
23.883345 -13.8628 11.98919
24.12463 -13.891383 11.99102
23.39213 -13.654949 11.966895
23.646082 -13.62739 11.97579
23.851166 -13.712357 11.982523
25.139341 -16.09416 12.09961
25.348009 -16.108391 12.10194
25.610743 -16.110331 12.105123
25.853783 -16.149115 12.106936
24.856752 -15.856874 12.087517
25.10199 -15.896413 12.092385
25.353857 -15.898723 12.093216
25.62151 -15.891823 12.094893
25.88953 -15.917548 12.098811
26.141121 -15.87226 12.098873
24.63616 -15.607251 12.097725
24.873917 -15.619473 12.099462
25.096848 -15.647243 12.080211
25.352886 -15.649017 12.082205
25.636076 -15.636079 12.084465
25.878294 -15.648712 12.085922
26.146973 -15.601666 12.085492
24.3871 -15.382556 12.075537
24.629141 -15.371458 12.100194
24.87027 -15.381512 12.099843
25.109205 -15.370564 12.092374
25.350233 -15.347478 12.06965
25.628704 -15.413328 12.075422
25.862871 -15.350253 12.072062
26.136244 -15.380292 12.074141
26.369101 -15.370028 12.076972
23.86591 -15.146926 12.047743
24.10309 -15.144734 12.048714
24.368841 -15.132366 12.051667
24.667725 -15.143975 12.079411
24.905014 -15.115641 12.075717
25.123432 -15.114316 12.057427
25.382883 -15.116181 12.057847
25.601248 -15.148774 12.060662
25.848328 -15.119592 12.060226
26.131811 -15.133435 12.063054
23.161201 -14.784149 12.024149
23.369551 -14.852502 12.030883
23.60614 -14.850998 12.032248
23.852987 -14.85231 12.033311
24.136625 -14.867896 12.037114
24.385351 -14.885026 12.041702
24.839874 -14.86339 12.041745
25.162281 -14.881469 12.046892
25.383549 -14.872421 12.046651
25.627134 -14.86097 12.046046
25.842756 -14.908363 12.049794
22.694 -14.523 12.005
22.894545 -14.604553 12.016055
23.115446 -14.629067 12.018413
23.37343 -14.612664 12.018195
23.60994 -14.598886 12.020052
23.853575 -14.600322 12.02362
24.146347 -14.636766 12.026442
25.123774 -14.637731 12.031873
25.373659 -14.641499 12.034065
22.655212 -14.398458 12.002192
22.881504 -14.368871 12.004788
23.14435 -14.352459 12.006242
23.401459 -14.351714 12.018795
23.639246 -14.382965 12.022082
23.882132 -14.368503 12.012936
23.214624 -14.075875 12.0125
23.368876 -14.094882 12.024968
23.635632 -14.131333 12.025022
23.859268 -14.115564 12.035302
24.125546 -14.133025 12.037652
23.37467 -13.929997 12.021338
23.620459 -13.873268 12.025039
23.821976 -13.951524 12.060541
23.624832 -13.739833 12.018667
