# .PCD v0.7 - Point Cloud Data file format
VERSION 0.7
FIELDS x y z
SIZE 4 4 4
TYPE F F F
COUNT 1 1 1
WIDTH 106
HEIGHT 1
VIEWPOINT -18.2321 96.2205 -1.35163 -0.354149 -0.00701479 0.0211809 0.934923
POINTS 106
DATA ascii
-4.8980002 -42.632397 7.6828437
-5.7714996 -43.720245 7.90025
-5.6841979 -43.608074 7.8999667
-5.3228297 -43.082947 7.8698959
-5.1718612 -42.898788 7.8824482
-5.0479503 -42.695847 7.8429189
-4.9597855 -42.564178 7.8346844
-4.8303075 -42.380173 7.8671603
-4.7270002 -42.439999 7.9860001
-6.2306671 -44.784832 8.1751661
-6.1274033 -44.614407 8.1553755
-6.0898337 -44.400753 8.0678329
-5.945107 -44.367672 8.1723194
-5.8323417 -44.139503 8.1102047
-5.7119164 -44.057999 8.2064171
-5.635942 -43.902302 8.1260757
-5.527 -43.745998 8.0790005
-5.4143219 -43.620049 8.1485376
-5.3045831 -43.419083 8.0951824
-5.2011113 -43.323238 8.1551447
-5.082881 -43.13834 8.1377249
-4.974 -43.025002 8.1890001
-5.0019999 -42.977001 8.1059999
-4.8798833 -42.877636 8.1604376
-4.8074503 -42.703255 8.0643501
-4.6959376 -42.603592 8.1417809
-4.6340003 -42.401924 8.1053333
-4.5412931 -42.165276 8.1231709
-4.4586787 -42.04594 8.0966196
-6.2460003 -45.022999 8.4645004
-6.1840191 -44.856594 8.3824997
-6.0762582 -44.659939 8.3255043
-5.9655833 -44.580414 8.401001
-5.8413725 -44.356094 8.3499947
-5.6985836 -44.26017 8.4295835
-5.6796269 -44.115009 8.3211803
-5.5450001 -43.889481 8.2857504
-5.4687004 -43.808548 8.2987499
-5.335875 -43.660793 8.3468542
-5.2109003 -43.547752 8.404417
-5.1136479 -43.361668 8.3673611
-5.073 -43.219498 8.2735004
-4.9366503 -43.092201 8.3689508
-4.8168001 -42.933205 8.3809996
-4.7272139 -42.801704 8.3724222
-4.6206179 -42.671215 8.4040585
-4.5650001 -42.324001 8.2589998
-4.4372501 -42.348167 8.4787502
-6.2637782 -45.03661 8.6420002
-6.1527004 -44.866951 8.6117792
-6.0440001 -44.710419 8.6378336
-5.9488001 -44.591576 8.5924416
-5.8240561 -44.410336 8.6154451
-5.7293253 -44.2733 8.5952244
-5.6233959 -44.117706 8.6413965
-5.5232544 -43.965466 8.6446676
-5.4299526 -43.841927 8.6554995
-5.3130555 -43.677181 8.6209221
-5.223887 -43.543121 8.6133213
-5.0925922 -43.352005 8.6352215
-4.9296465 -43.11071 8.6246138
-4.8057895 -42.944431 8.5899229
-4.7124586 -42.798878 8.6445827
-4.609087 -42.662914 8.6188164
-4.5120001 -42.452 8.7495003
-4.4359164 -42.368084 8.5669165
-6.2681665 -45.036705 8.8970413
-6.1699572 -44.888142 8.8689384
-6.0480332 -44.700039 8.9101086
-5.9612222 -44.580196 8.8497086
-5.8400073 -44.408829 8.8601189
-5.7344999 -44.252335 8.914917
-5.6483145 -44.136208 8.8883886
-5.5099998 -43.908997 8.9213333
-5.4681668 -43.875889 8.8678894
-5.3319898 -43.675053 8.8758221
-5.2203331 -43.545166 8.8539581
-5.1263337 -43.371815 8.8668156
-5.0435004 -43.240837 8.9476671
-4.9344063 -43.103458 8.86625
-4.7967734 -42.906647 8.8665838
-4.716639 -42.79628 8.8862782
-4.6021667 -42.626785 8.8816662
-4.5135002 -42.473999 8.9095001
-4.4116664 -42.103168 8.8740005
-6.28475 -45.022499 9.1462498
-6.2550001 -44.991501 9.1654997
-6.1470656 -44.808411 9.1052446
-6.0905209 -44.668583 9.1553965
-5.9695835 -44.578503 9.0967493
-5.8255 -44.354286 9.1048336
-5.6192336 -44.052368 9.0872669
-5.5284667 -43.915028 9.1031923
-5.4594998 -43.828999 9.0928335
-5.3235779 -43.629791 9.0453892
-5.1216002 -43.340992 9.063817
-5.0229998 -43.195 9.1172495
-4.9552126 -43.107986 9.0926628
-4.8062224 -42.88789 9.0355558
-4.73 -42.7785 9.0305004
-4.6330838 -42.643555 9.0260277
-4.513 -42.478001 9.0190001
-6.2750001 -44.842499 9.2827501
-6.1549687 -44.650719 9.3057709
-5.9660001 -44.521 9.2819996
-5.9049997 -44.445335 9.2585001
