# .PCD v0.7 - Point Cloud Data file format
VERSION 0.7
FIELDS x y z
SIZE 4 4 4
TYPE F F F
COUNT 1 1 1
WIDTH 71
HEIGHT 1
VIEWPOINT -18.2321 96.2205 -1.35163 -0.354149 -0.00701479 0.0211809 0.934923
POINTS 71
DATA ascii
-5.3065004 68.317001 16.9965
-4.9219999 68.346001 16.996
-4.6830001 68.351997 16.988001
-4.3010001 68.347 16.974001
-4.0970001 68.330505 16.97525
-3.4860001 68.408997 16.995001
-5.6070557 68.307053 17.063375
-5.3636665 68.313744 17.096666
-5.0947499 68.350349 17.151348
-4.8621998 68.336693 17.102001
-4.6352782 68.365776 17.107
-4.3318748 68.365807 17.11775
-4.1336784 68.38166 17.146999
-3.846 68.386551 17.109667
-3.6758335 68.387917 17.127874
-3.1078613 68.406471 17.13311
-5.8011003 68.333397 17.361233
-5.5580835 68.324829 17.373917
-5.3995004 68.347305 17.372601
-5.1490002 68.359749 17.358667
-4.8506904 68.353836 17.357178
-4.5619998 68.370331 17.342501
-4.3884997 68.388962 17.364517
-4.1127501 68.374252 17.404751
-3.9224167 68.411423 17.360626
-3.6018834 68.408302 17.344217
-3.3502502 68.403748 17.377251
-3.0885136 68.413063 17.355097
-2.9101999 68.411102 17.365
-2.6597667 68.460815 17.359051
-6.4120002 68.239998 17.610001
-6.5250001 68.458 17.649
-6.4008331 68.391838 17.623001
-5.6160002 68.495003 17.610001
-5.3537998 68.373596 17.5952
-5.1489444 68.445946 17.558447
-4.9003334 68.408333 17.52
-4.5244999 68.403503 17.5145
-4.3569999 68.480003 17.551001
-4.1895332 68.408859 17.585501
-3.5910001 68.447998 17.526501
-3.3570001 68.462669 17.509501
-3.0615001 68.472 17.601999
-2.5320001 68.450996 17.514
-5.6454172 68.60437 17.713417
-5.1056252 68.540878 17.646374
-4.8213339 68.660004 17.730335
-4.6662502 68.568001 17.6425
-4.283 68.527664 17.606667
-4.0974998 68.531998 17.5905
-3.8053334 68.622002 17.664667
-3.7097499 68.685501 17.717751
-3.3274002 68.604691 17.6366
-3.1536667 68.566338 17.670668
-2.8711429 68.664139 17.685785
-2.6142499 68.68325 17.7265
-5.3099999 68.289001 17.753
-3.08425 68.41375 17.756001
-6.1584997 68.630249 17.819876
-5.9171662 68.641167 17.814165
-5.5844445 68.650558 17.792334
-5.3381667 68.561501 17.778831
-5.0325003 68.673126 17.805374
-4.9510002 68.681999 17.846001
-4.6696501 68.682816 17.784065
-4.3875999 68.687096 17.797802
-4.0826664 68.644669 17.796333
-3.8219585 68.713753 17.800793
-3.5626667 68.730003 17.7915
-3.181 68.627998 17.790335
-2.8586669 68.755333 17.798168
