# .PCD v0.7 - Point Cloud Data file format
VERSION 0.7
FIELDS x y z
SIZE 4 4 4
TYPE F F F
COUNT 1 1 1
WIDTH 69
HEIGHT 1
VIEWPOINT -18.2321 96.2205 -1.35163 -0.354149 -0.00701479 0.0211809 0.934923
POINTS 69
DATA ascii
66.061996 100.31 -1.755
65.282997 100.65 -1.809
65.561005 100.62267 -1.7660002
64.791 100.9825 -1.8050001
65.153 100.767 -1.819
64.471497 101.242 -1.751
64.642662 101.13383 -1.7756667
65.870621 100.43028 -1.6191109
66.111702 100.291 -1.6422001
65.377937 100.65778 -1.6442854
65.619583 100.54449 -1.5904999
64.910805 100.92693 -1.607
65.107285 100.82457 -1.6289046
65.302002 100.83667 -1.6409999
64.471497 101.242 -1.5825
64.590546 101.17038 -1.5956666
64.772835 101.052 -1.5791665
66.209663 100.229 -1.3460001
65.676003 100.488 -1.273
65.873802 100.40275 -1.35185
66.093399 100.29409 -1.3591
65.409592 100.65395 -1.3725001
65.604637 100.56792 -1.3626429
64.915169 100.93884 -1.3613334
65.114998 100.83951 -1.3820556
65.258003 100.769 -1.472
64.476501 101.2485 -1.415
64.591499 101.17142 -1.3549166
64.791504 101.05634 -1.3535
66.20356 100.22745 -1.1466111
66.38633 100.13675 -1.1540833
65.856445 100.417 -1.1168889
66.100998 100.28975 -1.12375
65.383141 100.6865 -1.1158572
65.610695 100.5723 -1.113639
64.925247 100.95376 -1.089375
65.091003 100.83881 -1.1404999
65.263 100.776 -1.1370001
64.467995 101.23483 -1.1356666
64.591797 101.15273 -1.1028
64.791878 101.05688 -1.101625
64.318359 101.35414 -1.1312858
66.345367 100.17487 -0.86925
65.869576 100.43929 -0.87342852
66.085938 100.32317 -0.86516666
65.237 100.735 -0.88499999
65.376007 100.67925 -0.87166661
65.632996 100.56818 -0.83456248
65.785004 100.5 -0.90499997
64.921173 100.94733 -0.85933334
65.117912 100.85461 -0.87919044
65.254997 100.763 -0.97000003
64.470001 101.238 -0.95300001
64.614861 101.15707 -0.86478573
64.799202 101.0534 -0.83179998
64.344437 101.35062 -0.90568745
64.251999 101.546 -0.84450001
65.902374 100.45638 -0.60212499
66.131973 100.31483 -0.62725002
65.385857 100.6905 -0.61328572
65.620201 100.5793 -0.62216669
65.759003 100.5365 -0.54650003
64.93013 100.96162 -0.58625001
65.123924 100.87224 -0.61583334
65.275497 100.795 -0.59200001
64.599503 101.18317 -0.60108334
64.799118 101.0675 -0.59912503
64.374825 101.33829 -0.64083332
64.267998 101.571 -0.71700001
