# .PCD v0.7 - Point Cloud Data file format
VERSION 0.7
FIELDS x y z
SIZE 4 4 4
TYPE F F F
COUNT 1 1 1
WIDTH 158
HEIGHT 1
VIEWPOINT -18.2321 96.2205 -1.35163 -0.354149 -0.00701479 0.0211809 0.934923
POINTS 158
DATA ascii
-43.938 -56.055248 1.8155
-43.900002 -55.965 1.941
-43.338211 -56.055878 2.0987918
-43.165165 -56.09354 2.1155834
-43.620289 -55.798355 2.1126251
-43.409779 -55.90786 2.151485
-43.743 -55.7225 2.1465001
-43.355083 -56.071751 2.3511667
-43.612965 -55.806461 2.3688216
-43.418575 -55.910599 2.3851354
-43.8783 -55.62204 2.3541598
-43.723003 -55.724667 2.3826666
-43.323334 -56.048065 2.647625
-43.591831 -55.797092 2.6347737
-43.418209 -55.908875 2.642417
-42.97625 -55.944252 2.7077501
-43.86327 -55.620243 2.6425486
-43.713451 -55.716797 2.63445
-43.306877 -56.034813 2.8508127
-43.142864 -56.054104 2.8932362
-43.580269 -55.793747 2.8838956
-43.417751 -55.908188 2.8896878
-43.078999 -55.918999 2.832
-42.867329 -55.869503 2.8738334
-43.878551 -55.608868 2.8844931
-43.713707 -55.702396 2.9247918
-43.561001 -55.82238 3.1030831
-43.382473 -55.904751 3.1413691
-43.24675 -55.9725 3.03
-44.040001 -55.533249 3.1132498
-43.884792 -55.605171 3.11885
-43.707752 -55.694218 3.1639721
-44.011002 -55.498001 3.223
-44.511002 -55.097 3.237
-44.452499 -55.179501 3.1995001
-45.039749 -54.804001 3.1272502
-44.93803 -54.853775 3.181278
-45.299164 -54.5695 3.2076666
-45.132267 -54.685802 3.2105999
-43.807384 -55.574886 3.3582029
-43.659809 -55.676777 3.3911107
-44.015503 -55.429001 3.4535
-43.957169 -55.470417 3.3514168
-44.521126 -55.099003 3.394125
-44.405834 -55.175247 3.3618126
-44.914692 -54.831787 3.3848214
-45.322548 -54.557014 3.3730121
-45.152702 -54.674004 3.3501854
-45.448414 -54.476166 3.3526666
-43.872498 -55.526501 3.5110002
-44.014999 -55.429001 3.527
-43.958 -55.4715 3.517
-44.524002 -55.08667 3.6525002
-44.389 -55.185001 3.5039999
-45.01767 -54.751671 3.5643337
-44.916351 -54.815014 3.6164722
-45.027664 -54.737335 3.6426666
-44.533627 -55.066624 3.79825
-44.917999 -54.802124 3.7999165
-43.816498 -55.534668 4.1905003
-43.918083 -55.466457 4.1942081
-44.5345 -55.048 4.158
-44.420918 -55.12756 4.1606946
-44.908249 -54.797085 4.1574168
-45.287582 -54.541828 4.1364169
-45.097054 -54.662346 4.1486425
-45.608948 -54.3255 4.1951108
-45.397068 -54.456001 4.1759672
-46.050003 -54.038124 4.1211252
-45.907108 -54.127071 4.1361074
-45.745163 -54.240002 4.1333332
-46.362301 -53.822956 4.1396117
-46.201099 -53.930664 4.1481333
-46.602047 -53.659866 4.1417499
-47.107395 -53.317474 4.1310477
-46.922951 -53.443432 4.1378665
-47.543751 -53.021667 4.1430831
-47.384296 -53.128868 4.1293688
-47.249752 -53.219749 4.1585002
-47.68087 -52.929432 4.1342001
-43.803188 -55.539314 4.3439999
-44.039165 -55.380997 4.3761668
-43.915123 -55.462753 4.398417
-44.532837 -55.046497 4.3563333
-44.412701 -55.126511 4.359417
-44.904804 -54.79314 4.355639
-45.287582 -54.535999 4.356833
-45.113163 -54.651649 4.3682866
-45.606892 -54.321743 4.3956585
-45.404118 -54.455509 4.3997831
-46.04475 -54.032421 4.3572502
-45.89695 -54.132366 4.3662019
-45.746666 -54.231003 4.3643336
-46.366421 -53.814251 4.3730249
-46.181633 -53.939003 4.3836336
-46.791584 -53.525166 4.3780832
-46.61871 -53.643562 4.3892584
-47.112164 -53.306797 4.3596025
-46.922222 -53.436218 4.3795004
-47.539501 -53.017372 4.3924999
-47.37487 -53.127266 4.3976331
-47.243916 -53.217449 4.3603892
-47.706551 -52.906837 4.3781834
-43.80975 -55.516418 4.6634588
-43.625755 -55.646828 4.6422882
-44.069752 -55.3405 4.6723747
-43.916294 -55.44743 4.6568933
-44.52533 -55.038006 4.6451669
-44.380325 -55.134712 4.6525493
-44.229668 -55.246666 4.645
-44.902798 -54.79443 4.6507382
-45.296665 -54.527588 4.5795832
-45.120956 -54.648636 4.6275611
-44.980999 -54.736 4.7220001
-45.865002 -54.265007 4.7259998
-45.625401 -54.317722 4.6070833
-45.418964 -54.436989 4.6118531
-46.266998 -54.100998 4.7174997
-46.092846 -54.134697 4.6873002
-45.853985 -54.145641 4.6034718
-45.735001 -54.2435 4.6704998
-46.632 -53.991001 4.7329998
-46.340752 -53.818901 4.5867996
-46.172768 -53.934185 4.6090169
-47.19725 -53.591751 4.724
-46.806393 -53.563831 4.6239448
-46.626732 -53.62677 4.5938673
-46.453751 -53.746998 4.5865002
-47.368 -53.458 4.7080002
-47.098866 -53.324856 4.5972056
-46.924194 -53.423737 4.5804029
-47.530609 -53.016193 4.6416664
-47.358776 -53.129726 4.5847087
-47.230499 -53.223167 4.5914998
-43.979 -55.783001 4.848
-44.085003 -55.595001 4.8213334
-43.841248 -55.643372 4.8266945
-44.500999 -55.325001 4.8060002
-44.315334 -55.342167 4.821167
-44.144123 -55.37896 4.8216462
-43.929001 -55.478001 4.9530001
-44.427998 -55.202667 4.8046665
-45.359001 -54.796001 4.79
-45.931 -54.543999 4.7729998
-45.465 -54.692001 4.7909999
-45.90279 -54.385067 4.8350716
-46.610001 -54.041 4.7529998
-46.384499 -54.198997 4.7554998
-47.512001 -53.012169 4.9003334
-47.5 -53.012001 4.9180002
-43.867252 -55.574371 5.12675
-44.287998 -55.297001 5.0289998
-44.118 -55.400002 5.138
-47.503162 -53.015331 5.1258335
-47.4995 -53.012001 5.118
-43.792999 -55.578999 5.4196663
-43.849998 -55.537998 5.5949998
-43.849503 -55.432625 6.1921248
