# .PCD v0.7 - Point Cloud Data file format
VERSION 0.7
FIELDS x y z
SIZE 4 4 4
TYPE F F F
COUNT 1 1 1
WIDTH 91
HEIGHT 1
VIEWPOINT -18.2321 96.2205 -1.35163 -0.354149 -0.00701479 0.0211809 0.934923
POINTS 91
DATA ascii
-59.501999 -127.769 16.955
-57.120998 -129.81616 17.131334
-57.426834 -129.58066 17.132166
-57.236664 -129.72467 17.127668
-58.320854 -128.81413 17.116428
-58.186501 -128.935 17.0965
-58.582561 -128.59222 17.135555
-58.424 -128.7365 17.188
-59.386002 -127.84183 17.099417
-59.25 -127.953 17.174
-57.096668 -129.8 17.361334
-56.98167 -129.877 17.355665
-57.393665 -129.58525 17.384417
-57.194996 -129.71266 17.393
-57.579498 -129.4955 17.362499
-58.305664 -128.79433 17.363001
-58.21167 -128.90733 17.339666
-58.5914 -128.5668 17.396
-58.438999 -128.68333 17.362665
-59.146 -128.052 17.395
-59.38456 -127.84244 17.352814
-59.243 -127.939 17.372501
-59.634003 -127.61243 17.374857
-59.487 -127.739 17.351
-57.057331 -129.78767 17.622667
-56.977501 -129.87 17.606499
-57.397373 -129.56674 17.622499
-57.171169 -129.69951 17.625834
-57.557999 -129.44899 17.607668
-58.324337 -128.75999 17.630667
-58.239666 -128.80501 17.618666
-58.612 -128.54367 17.639334
-58.448101 -128.6626 17.6064
-59.359303 -127.85171 17.605801
-59.243999 -127.942 17.674
-59.644855 -127.60258 17.61257
-59.484001 -127.735 17.552999
-57.056499 -129.78699 17.873001
-56.961666 -129.83566 17.852333
-57.350498 -129.56818 17.866999
-57.163746 -129.685 17.875
-57.5495 -129.43149 17.856499
-57.452 -129.48399 17.923
-58.321999 -128.756 17.829
-58.182999 -128.86426 17.907499
-58.601334 -128.558 17.873001
-58.415375 -128.68437 17.877125
-58.634998 -128.48599 17.943001
-59.391144 -127.81672 17.862572
-59.237335 -127.928 17.871334
-59.831001 -127.547 17.851
-59.610332 -127.60966 17.878168
-59.483498 -127.7355 17.8505
-57.050671 -129.77701 18.123335
-57.3255 -129.55325 18.095751
-57.158195 -129.6732 18.124901
-57.537663 -129.40601 18.103666
-57.422752 -129.48126 18.140751
-58.183086 -128.86684 18.115999
-58.562 -128.54668 18.131666
-58.392891 -128.66766 18.124887
-58.640251 -128.43651 18.1325
-59.312 -127.8125 18.113499
-59.235001 -127.9245 18.119999
-59.619495 -127.58884 18.104334
-59.448833 -127.73215 18.149
-59.791 -127.4635 18.188999
-59.700001 -127.499 18.232
-57.052002 -129.7805 18.374001
-57.303253 -129.561 18.3675
-57.153252 -129.66325 18.374748
-57.560753 -129.34613 18.365499
-57.39967 -129.45 18.375999
-58.548 -128.51601 18.326
-58.383999 -128.64915 18.373167
-58.589996 -128.463 18.398666
-59.348 -127.79761 18.339399
-59.596165 -127.58183 18.372667
-59.434002 -127.70267 18.412668
-59.779999 -127.442 18.388
-59.699001 -127.496 18.333
-57.040001 -129.757 18.726
-56.956001 -129.82849 18.605999
-57.327198 -129.5392 18.617401
-57.119076 -129.6868 18.624928
-57.4375 -129.3875 18.610001
-59.350834 -127.78133 18.589834
-59.581749 -127.58825 18.588751
-59.466 -127.7025 18.595501
-57.269001 -129.543 18.787001
-57.385498 -129.46201 18.809502
