# .PCD v0.7 - Point Cloud Data file format
VERSION 0.7
FIELDS x y z
SIZE 4 4 4
TYPE F F F
COUNT 1 1 1
WIDTH 77
HEIGHT 1
VIEWPOINT -18.2321 96.2205 -1.35163 -0.354149 -0.00701479 0.0211809 0.934923
POINTS 77
DATA ascii
-55.353123 -13.045625 -1.339125
-55.075123 -12.909375 -1.2997501
-54.928333 -12.827167 -1.3214166
-54.840168 -12.713 -1.2843333
-54.660751 -12.606904 -1.3355666
-54.465 -12.707 -1.387
-54.871002 -12.457 -1.2605
-54.579899 -12.44565 -1.302
-54.446205 -12.310771 -1.3187499
-54.123497 -12.3875 -1.3945
-53.869396 -12.351999 -1.3975999
-54.631832 -12.100334 -1.2625
-54.335865 -12.115283 -1.3379167
-54.10775 -12.164499 -1.399
-53.896999 -12.019 -1.405
-54.507999 -11.795 -1.255
-54.384949 -11.919167 -1.3102221
-54.181763 -11.831524 -1.387381
-53.801998 -11.956 -1.408
-54.41478 -11.548333 -1.2871112
-54.199631 -11.644828 -1.3496761
-53.817501 -11.6455 -1.4094999
-54.414658 -11.391094 -1.2804376
-54.128929 -11.371066 -1.3851666
-53.863747 -11.38875 -1.4119999
-54.462738 -11.13721 -1.281181
-54.139359 -11.137501 -1.3865445
-54.537334 -10.838389 -1.3207222
-54.376835 -10.892013 -1.3326124
-54.229828 -10.941833 -1.3720001
-54.638702 -10.630301 -1.3113
-54.340004 -10.607133 -1.3785665
-54.092667 -10.644 -1.4235001
-54.85136 -10.349417 -1.3005555
-54.621052 -10.35365 -1.3648499
-54.428764 -10.414167 -1.4055667
-54.143501 -10.469999 -1.4275
-55.44075 -12.788501 -1.178
-55.185501 -12.8535 -1.244
-55.570499 -12.575001 -1.079
-55.299 -12.654834 -1.1033334
-55.123478 -12.603071 -1.1661428
-55.511002 -12.5 -1.039
-55.402248 -12.4555 -1.0632501
-55.192337 -12.32725 -1.0488334
-54.830997 -12.358162 -1.1770476
-55.059002 -12.213834 -1.0433334
-54.862247 -12.076167 -1.0844167
-54.66053 -12.127673 -1.1839466
-54.828442 -11.877777 -1.0608333
-54.571453 -11.888934 -1.174625
-54.764229 -11.699643 -1.0618286
-54.7215 -11.565499 -1.1027499
-54.47646 -11.658661 -1.1946034
-54.711536 -11.350562 -1.0791501
-54.452499 -11.402084 -1.1704166
-54.755951 -11.044857 -1.0930238
-54.657253 -11.1465 -1.1044999
-54.467113 -11.1475 -1.1720166
-54.821014 -10.860015 -1.0833143
-54.543438 -10.8451 -1.2104833
-54.491001 -10.995 -1.168
-54.947987 -10.59319 -1.1073
-54.656975 -10.637249 -1.1958332
-54.849457 -10.349656 -1.2056668
-55.529663 -12.504333 -0.95899999
-55.342056 -12.408389 -0.94711113
-55.174 -12.302999 -0.94499999
-55.082169 -12.225666 -0.9526667
-54.925335 -12.0385 -0.95099998
-54.851398 -11.836599 -0.95450002
-54.759251 -11.657001 -0.96224999
-54.727501 -11.539499 -0.96850002
-54.724167 -11.355834 -0.97166663
-54.759003 -11.047999 -0.97600001
-54.743999 -11.144 -0.96649998
-54.835003 -10.87061 -0.97583336
