# .PCD v0.7 - Point Cloud Data file format
VERSION 0.7
FIELDS x y z
SIZE 4 4 4
TYPE F F F
COUNT 1 1 1
WIDTH 78
HEIGHT 1
VIEWPOINT -18.2321 96.2205 -1.35163 -0.354149 -0.00701479 0.0211809 0.934923
POINTS 78
DATA ascii
-16.500999 -47.688999 -0.035
-16.188334 -47.1245 -0.044999998
-16.12225 -46.91275 -0.048874997
-15.9375 -46.793999 -0.030499998
-15.869374 -46.613003 -0.059625
-15.875834 -46.389664 -0.087333329
-15.6465 -46.372166 -0.045000002
-15.507 -46.170502 -0.033500001
-15.445001 -46.073002 -0.049000002
-15.5515 -45.983498 -0.094499998
-15.409333 -45.908333 -0.068166666
-15.237666 -45.792 -0.036666669
-15.152583 -45.590027 -0.081694447
-15.136499 -45.4375 -0.077500001
-14.940999 -45.332165 -0.083416671
-16.538834 -47.742332 0.24966668
-16.335335 -47.354553 0.11266667
-16.176085 -47.123337 0.101
-16.046667 -46.943333 0.094000004
-15.963834 -46.820503 0.155625
-15.812468 -46.604404 0.12766668
-15.652292 -46.375458 0.12920833
-15.519584 -46.183044 0.17345834
-15.429167 -46.054001 0.11483334
-15.324234 -45.903435 0.10520001
-15.228946 -45.765888 0.15933333
-15.118527 -45.609783 0.11180556
-15.023334 -45.470783 0.14511111
-16.636618 -47.793018 0.36996669
-16.3225 -47.85667 0.47966662
-16.542707 -47.738503 0.41333336
-16.460001 -47.706001 0.46625
-16.077499 -47.540497 0.46250001
-16.345333 -47.346668 0.35975
-16.041 -47.425999 0.454
-15.933333 -47.369999 0.47766665
-16.2635 -47.2215 0.39366668
-16.146074 -47.118393 0.3720926
-15.795 -47.1465 0.46450001
-15.7275 -47.051003 0.46200001
-16.068001 -46.942497 0.34783334
-15.921267 -46.858265 0.37313333
-15.593834 -46.860668 0.46133336
-15.838428 -46.630138 0.35669047
-15.726 -46.721001 0.42199999
-15.417278 -46.584553 0.44661108
-15.649167 -46.386917 0.37691668
-15.371834 -46.340389 0.4217222
-15.247001 -46.355999 0.44566664
-15.559 -46.205833 0.36649999
-15.452032 -46.1082 0.32586667
-15.102834 -46.14571 0.44008332
-15.337722 -45.90036 0.32383332
-14.895001 -45.853401 0.43166667
-15.136932 -45.649086 0.32946667
-15.0065 -45.419502 0.329
-14.893333 -45.361504 0.35633337
-16.331503 -47.855484 0.63300002
-16.552612 -47.733852 0.63404167
-16.440153 -47.736191 0.63536114
-15.909033 -47.305 0.61909997
-15.81 -47.160999 0.66983336
-15.733167 -47.05022 0.64650005
-15.608168 -46.872902 0.63090479
-15.51325 -46.728584 0.69433331
-15.411611 -46.58778 0.64766663
-15.307556 -46.434444 0.64688891
-15.2255 -46.321167 0.61650002
-15.094833 -46.132671 0.64683336
-15.547 -47.507999 0.80800003
-15.837166 -47.320831 0.78916669
-15.583333 -47.404835 0.79049999
-15.399501 -47.452248 0.76475
-15.495 -47.005001 0.77100003
-15.606 -46.960503 0.76349998
-15.332 -46.615002 0.75599998
-15.245 -46.583 0.75700003
-15.153 -46.4585 0.75
