# .PCD v0.7 - Point Cloud Data file format
VERSION 0.7
FIELDS x y z
SIZE 4 4 4
TYPE F F F
COUNT 1 1 1
WIDTH 74
HEIGHT 1
VIEWPOINT -18.2321 96.2205 -1.35163 -0.354149 -0.00701479 0.0211809 0.934923
POINTS 74
DATA ascii
25.395 -12.754 4.7449999
25.409 -12.739 4.7459998
26.153 -12.052 4.7329998
26.521 -11.708 4.7140002
24.89814 -13.085972 4.896894
25.019835 -13.063167 4.7810001
24.33 -12.821 4.987
25.130135 -12.884299 4.8938122
25.260178 -12.762833 4.9044771
25.390419 -12.64353 4.9006705
25.531052 -12.523147 4.8654513
25.652386 -12.404681 4.8777947
25.776175 -12.29595 4.8470497
25.919477 -12.170365 4.8573275
26.053759 -12.039193 4.8612475
25.045601 -11.758 4.9980001
26.184101 -11.915565 4.8864703
26.334467 -11.78096 4.8448167
25.123947 -11.625917 4.9922705
25.358448 -11.634673 4.9928002
25.619156 -11.627389 4.9953332
25.860666 -11.546 4.9960003
26.059999 -11.526 4.9990001
26.437553 -11.686189 4.8580556
26.580774 -11.561023 4.8493414
25.388762 -11.375461 4.9807334
25.620514 -11.382736 4.9835725
25.89411 -11.368112 4.987
26.111809 -11.390691 4.9913583
26.377808 -11.381441 4.99547
25.865345 -11.116416 4.9742193
26.09796 -11.124405 4.9754968
26.386 -11.155131 4.9830532
26.156429 -10.862053 4.965796
26.396896 -10.875581 4.9687133
24.864511 -13.050865 5.0374885
24.436249 -12.802999 5.0423751
24.616699 -12.870417 5.0449834
24.86274 -12.872969 5.0508189
25.136993 -12.843468 5.0359039
24.361685 -12.630689 5.0330501
24.614008 -12.618542 5.0364246
24.864538 -12.629017 5.0399108
25.110498 -12.639752 5.043819
25.359009 -12.626554 5.0324693
25.5236 -12.5142 5.0218
24.346506 -12.369928 5.0218978
24.60076 -12.36902 5.0240664
24.869352 -12.389722 5.0274053
25.113611 -12.39117 5.0303531
25.359186 -12.390034 5.03585
25.603163 -12.360694 5.0271697
25.773499 -12.2755 5.0213747
24.635483 -12.149089 5.0132337
24.868505 -12.127367 5.0139737
25.109972 -12.118408 5.0177693
25.363039 -12.147056 5.0232048
25.629015 -12.115764 5.02565
25.866991 -12.130447 5.0235581
26.045221 -12.040889 5.0126667
24.866835 -11.904128 5.0033894
25.102106 -11.862233 5.0042667
25.350861 -11.877196 5.0079689
25.608765 -11.855081 5.0093503
25.864477 -11.858994 5.013629
26.102921 -11.862328 5.0164762
26.301514 -11.805844 5.0162559
25.656 -11.691 5
25.911396 -11.648396 5.0033126
26.140118 -11.58002 5.0049396
26.356167 -11.647751 5.0108924
26.5268 -11.588099 5.0075998
26.351334 -11.463834 5.0009999
26.642481 -11.417601 5.00354
