# .PCD v0.7 - Point Cloud Data file format
VERSION 0.7
FIELDS x y z
SIZE 4 4 4
TYPE F F F
COUNT 1 1 1
WIDTH 93
HEIGHT 1
VIEWPOINT -18.2321 96.2205 -1.35163 -0.354149 -0.00701479 0.0211809 0.934923
POINTS 93
DATA ascii
71.544998 96.998001 -1.585
71.862503 96.919502 -1.55925
71.3685 97.139999 -1.5865
71.611 97.042503 -1.53
70.904495 97.468994 -1.5515001
71.12825 97.34375 -1.5445
70.460999 97.720497 -1.5425
70.6474 97.5784 -1.5757999
70.355003 97.782997 -1.567
71.836914 96.932579 -1.41825
71.374466 97.165695 -1.4147667
71.596375 97.059868 -1.35025
70.913597 97.465797 -1.3911999
71.131157 97.348152 -1.37045
71.25 97.290001 -1.378
70.431 97.748001 -1.459
70.573502 97.643074 -1.4003571
70.786125 97.537331 -1.3390417
70.351746 97.798622 -1.3773749
71.748337 96.978668 -1.149
71.896187 96.902122 -1.128875
71.388412 97.17099 -1.1499722
71.608337 97.052635 -1.1403334
70.924332 97.469666 -1.131
71.120827 97.356499 -1.1012778
70.427498 97.719666 -1.1055833
70.625229 97.637383 -1.1362222
70.837006 97.526001 -1.081
70.352501 97.779503 -1.189
71.741501 96.970001 -0.85450006
71.87867 96.916138 -0.92457139
72.084747 96.794128 -0.89775002
71.407043 97.186295 -0.89641666
71.62307 97.07103 -0.85789996
70.958672 97.462166 -0.86483335
71.09993 97.376808 -0.87549996
71.27533 97.280334 -0.87533331
70.388748 97.724747 -0.96574998
70.632057 97.646393 -0.87422216
70.840668 97.53083 -0.87099999
70.397751 97.771744 -0.86150002
71.744667 96.972664 -0.64333338
71.91272 96.914841 -0.63438892
72.100922 96.815422 -0.64258331
71.415672 97.161774 -0.6351667
71.61158 97.057587 -0.65808332
70.912598 97.4356 -0.60959995
71.129356 97.325211 -0.6084286
71.257339 97.255333 -0.73299998
70.43 97.746994 -0.68174994
70.602852 97.649117 -0.6180926
70.818497 97.523499 -0.60183334
70.347 97.805611 -0.6069445
71.746002 96.974998 -0.43349999
71.919945 96.924332 -0.36783335
72.100304 96.828499 -0.38779998
71.405258 97.211693 -0.38599998
71.577667 97.077621 -0.38754168
71.765999 97.001999 -0.30500001
70.953499 97.454002 -0.41649997
71.095306 97.385811 -0.35561112
71.257332 97.299339 -0.36766669
70.618439 97.682777 -0.38572228
70.829506 97.56221 -0.33441669
70.410843 97.800674 -0.38313332
71.663002 96.997002 -0.082999997
71.881996 96.944069 -0.1016875
71.446396 97.195801 -0.123
71.572578 97.076912 -0.15958333
71.766998 97.002998 -0.138
70.973663 97.481499 -0.13666667
71.116585 97.399414 -0.092500001
71.291397 97.292999 -0.1006
70.626221 97.686394 -0.11488889
70.818665 97.57711 -0.11594445
70.156929 97.92308 -0.10757142
70.386604 97.819801 -0.12536666
70.009003 98.032501 -0.083499998
71.653999 96.985001 0.044499997
71.885002 96.947998 0.040750001
71.455666 97.154663 0.023666665
71.567993 97.098 0.052500002
71.089005 97.434006 0.046999998
71.306 97.2995 0.050999999
70.664497 97.716003 0.042999998
70.907997 97.555 0.050999999
71.057503 97.596497 0.087500006
71.406998 97.652 0.068000004
70.440002 97.900002 0.028999999
70.620499 97.940331 0.13933334
70.15657 98.216362 0.11092857
70.386925 98.099289 0.12650001
70.527 98.0215 0.1565
