# .PCD v0.7 - Point Cloud Data file format
VERSION 0.7
FIELDS x y z
SIZE 4 4 4
TYPE F F F
COUNT 1 1 1
WIDTH 101
HEIGHT 1
VIEWPOINT -18.2321 96.2205 -1.35163 -0.354149 -0.00701479 0.0211809 0.934923
POINTS 101
DATA ascii
59.769001 112.433 3.223
59.661999 112.619 3.2175
59.397335 112.87301 3.168
59.532001 112.761 3.1900001
60.069836 111.89567 3.3638332
59.923832 112.15475 3.3879166
59.799202 112.3729 3.3917999
59.652794 112.6392 3.3746002
59.24675 112.96875 3.4169998
59.380001 112.88924 3.3708332
59.535336 112.76733 3.368
60.197498 111.6655 3.5797501
60.069164 111.89516 3.6154168
59.936199 112.1403 3.6083
59.814163 112.35751 3.6443336
59.487999 112.677 3.631
59.652302 112.6378 3.6324
59.244999 112.965 3.573
59.354073 112.88786 3.660357
59.542 112.7805 3.6364999
59.189999 113.059 3.6819999
60.212128 111.647 3.8482499
60.288334 111.52 3.8416665
60.079216 111.88386 3.8980002
59.956501 112.12099 3.8613331
59.825005 112.34862 3.8503749
59.676403 112.60979 3.882
59.249001 112.973 3.75
59.358376 112.90651 3.8926878
59.5495 112.794 3.882
59.187 113.0525 3.8175001
60.209099 111.6652 4.164
60.080563 111.89706 4.1465001
59.942253 112.143 4.10675
60.014999 112.132 4.1290002
59.825916 112.34975 4.098
59.680199 112.617 4.132
59.248001 112.97 4.0170002
59.389214 112.91257 4.1165714
59.552498 112.8 4.1274996
59.175499 113.03101 4.1725001
60.212753 111.67425 4.3797503
60.085583 111.89249 4.3812499
59.931252 112.173 4.4172502
59.82856 112.355 4.3725557
59.662201 112.65769 4.3814001
59.368687 112.93255 4.3617725
59.556 112.80666 4.3500004
59.178249 113.0365 4.41925
60.213623 111.67686 4.6236248
60.296665 111.53567 4.6393332
60.09325 111.89133 4.6193328
59.934502 112.178 4.6174998
59.829895 112.35778 4.639111
59.692001 112.616 4.5926666
59.389133 112.92799 4.6232276
59.586334 112.797 4.5886664
59.182499 113.0455 4.6184998
59.264 113.003 4.7340002
60.216 111.681 4.8563333
60.299999 111.543 4.9050002
60.098927 111.89008 4.8411431
59.934002 112.177 4.8396668
59.832249 112.3624 4.8913331
59.695004 112.59 4.8575001
59.418591 112.91491 4.9065833
59.565502 112.82566 4.8708334
59.183666 113.048 4.8420005
59.2635 113.0015 4.8655
60.222797 111.675 5.105
60.299 111.542 5.1254997
60.108948 111.87738 5.1320276
59.9375 112.18475 5.0837498
60.040001 112.001 5.119
59.832916 112.36425 5.1214166
59.698582 112.59708 5.1325831
59.42157 112.92029 5.1329999
59.558502 112.84149 5.1523337
59.187332 113.05417 5.1253333
59.26675 113.008 5.1117496
60.211166 111.70349 5.3438334
60.296001 111.60367 5.3939996
60.113998 111.88434 5.4213333
59.938999 112.1875 5.3745003
60.049 112.017 5.4759998
59.836502 112.37167 5.3513336
59.694668 112.621 5.4266663
59.378803 112.9572 5.3632002
59.53875 112.86225 5.3740001
59.195499 113.071 5.4219999
59.270664 113.01633 5.3576674
60.175671 111.66599 5.6651669
60.126999 111.876 5.612
59.910999 112.19833 5.632
60.047501 112.015 5.6094999
59.832573 112.3643 5.591857
59.706001 112.61201 5.6152501
59.402199 112.92381 5.5886002
59.554001 112.863 5.5693336
59.197502 113.0745 5.6009998
59.279503 113.0325 5.5815001
