# .PCD v0.7 - Point Cloud Data file format
VERSION 0.7
FIELDS x y z
SIZE 4 4 4
TYPE F F F
COUNT 1 1 1
WIDTH 58
HEIGHT 1
VIEWPOINT -18.2321 96.2205 -1.35163 -0.354149 -0.00701479 0.0211809 0.934923
POINTS 58
DATA ascii
9.4989996 -27.018 -0.013
10.129645 -27.608627 0.12308381
9.7176771 -27.309769 0.15037037
9.8626404 -27.347858 0.13127586
10.01425 -27.498001 0.18885002
9.4966335 -27.011232 0.14740001
9.5799732 -27.106041 0.13896628
10.14504 -27.599771 0.37231886
9.7120152 -27.303841 0.39231747
9.8535089 -27.335405 0.37191036
10.0111 -27.489599 0.39820001
9.4932995 -27.0023 0.37700003
9.5981627 -27.122299 0.36742499
10.139347 -27.594994 0.64828748
9.7459183 -27.26675 0.60055006
9.8872128 -27.34938 0.62657499
10.0085 -27.4818 0.6024
9.5982962 -27.119534 0.60722744
10.153043 -27.57686 0.88869077
9.7101393 -27.277925 0.8255353
9.8879538 -27.346895 0.87104779
10.008514 -27.474792 0.85398084
9.6093416 -27.110823 0.86776072
9.6935997 -27.274069 1.1486667
9.9154167 -27.36319 1.1168585
10.022842 -27.475479 1.1430382
9.6361971 -27.128204 1.11247
9.5109329 -26.993767 1.1560668
10.144455 -27.561745 1.3601168
9.6879005 -27.2568 1.4007001
9.9121971 -27.352676 1.3524066
10.021267 -27.456934 1.40135
9.6338787 -27.11842 1.3449448
9.7968006 -27.222099 1.4653499
9.5060997 -26.979801 1.3955001
9.9271059 -27.359144 1.6335063
10.027561 -27.455084 1.6530167
9.642314 -27.140625 1.6452047
9.8030901 -27.223507 1.6308092
9.5163851 -26.979904 1.6452223
9.9189663 -27.339178 1.8768535
10.029995 -27.451715 1.8951724
9.6501532 -27.149597 1.8676518
9.7674255 -27.183508 1.8558038
9.5272999 -26.983002 1.8969001
9.9047623 -27.309891 2.1336377
10.024632 -27.437834 2.1477668
9.648634 -27.131496 2.1549034
9.7572803 -27.17832 2.1466415
9.5229006 -26.970001 2.0963001
9.9104366 -27.305386 2.4005227
10.023252 -27.427046 2.3887279
9.6599731 -27.119364 2.3846667
9.5336142 -26.971163 2.3494949
9.9330549 -27.321556 2.6168559
9.6518507 -27.104548 2.6352983
9.8335094 -27.214249 2.5893667
9.5307741 -26.956823 2.6462357
