# .PCD v0.7 - Point Cloud Data file format
VERSION 0.7
FIELDS x y z
SIZE 4 4 4
TYPE F F F
COUNT 1 1 1
WIDTH 77
HEIGHT 1
VIEWPOINT -18.2321 96.2205 -1.35163 -0.354149 -0.00701479 0.0211809 0.934923
POINTS 77
DATA ascii
-86.322998 -81.082001 0.745
-86.320251 -80.902748 0.68850005
-86.25 -80.953499 0.62049997
-86.569504 -80.515503 0.6455
-86.386253 -80.628494 0.65075004
-86.658333 -80.454002 0.66633338
-86.282997 -80.477997 0.59100002
-86.352875 -81.164253 0.90237498
-86.3265 -80.897301 0.88220006
-86.569336 -80.515327 0.852
-86.380348 -80.644852 0.86324996
-86.675797 -80.438004 0.88249999
-86.355202 -81.1772 1.1373999
-86.32959 -80.911499 1.1359166
-86.564751 -80.511253 1.079
-86.369606 -80.649529 1.0866944
-86.663422 -80.438583 1.1345
-86.2985 -81.279999 1.4395001
-86.224503 -81.328003 1.441
-86.350502 -81.1511 1.375
-86.330246 -80.912247 1.4102501
-86.556999 -80.503998 1.3055
-86.363388 -80.643608 1.3506112
-86.286003 -81.268333 1.646
-86.205666 -81.310333 1.6486667
-86.364502 -81.186104 1.6339
-86.329102 -80.900002 1.6178
-86.369461 -80.627808 1.6346
-86.612564 -80.460464 1.5880667
-86.289001 -81.2715 1.8529999
-86.212494 -81.316498 1.8565
-86.382698 -81.181503 1.8728001
-86.333397 -80.926598 1.8812001
-86.371552 -80.602997 1.8658998
-86.599724 -80.458 1.8479166
-86.3815 -81.191002 2.1341667
-86.335625 -80.916878 2.0918751
-86.361816 -80.61969 2.1129377
-86.607758 -80.441246 2.09675
-86.425003 -80.497002 2.1289999
-86.333992 -80.915337 2.3608334
-86.336998 -80.652 2.3601251
-86.639824 -80.375763 2.3518331
-86.418335 -80.491325 2.336
-86.337372 -80.918373 2.587625
-86.344719 -80.629356 2.622643
-86.658096 -80.368759 2.5926192
-86.419838 -80.491669 2.6513336
-86.350372 -81.17662 2.8892503
-86.33683 -80.918175 2.8561666
-86.335129 -80.650063 2.8604374
-86.646416 -80.381943 2.8471484
-86.4245 -80.496506 2.8922501
-86.265251 -81.028 3.1195002
-86.123116 -81.116783 3.1359999
-86.335617 -80.917122 3.0839999
-86.339005 -80.62606 3.1383748
-86.650856 -80.372612 3.1035001
-86.448334 -80.480331 3.1603334
-86.263 -81.026001 3.2620001
-86.335503 -80.917496 3.2695
-86.338326 -80.639671 3.3053334
-86.648773 -80.365219 3.3429999
-86.475998 -80.458 3.3659999
-86.339996 -80.921005 3.6830001
-86.332993 -80.612404 3.6897998
-86.560997 -80.403 3.674
-86.435753 -80.449249 3.6957502
-86.343658 -80.869446 3.8494444
-86.330124 -80.575623 3.897625
-86.60659 -80.365753 3.8738334
-86.429749 -80.429749 3.9108748
-86.34433 -80.832329 4.1391664
-86.330994 -80.600418 4.1328573
-86.640274 -80.340355 4.1304998
-86.614319 -80.344391 4.3553128
-86.705498 -80.190994 4.3509998
