# .PCD v0.7 - Point Cloud Data file format
VERSION 0.7
FIELDS x y z
SIZE 4 4 4
TYPE F F F
COUNT 1 1 1
WIDTH 77
HEIGHT 1
VIEWPOINT -18.2321 96.2205 -1.35163 -0.354149 -0.00701479 0.0211809 0.934923
POINTS 77
DATA ascii
-72.306 -28.664 17.723
-72.203003 -28.563999 17.747999
-73.385834 -29.804167 17.902666
-73.109001 -29.84 17.984001
-73.150505 -29.585169 17.883501
-72.864006 -29.593 17.967667
-73.032829 -29.444334 17.841833
-72.895378 -29.320625 17.873999
-72.629669 -29.342001 17.965332
-72.8405 -29.228001 17.7745
-72.696251 -29.116877 17.871876
-72.410667 -29.123167 17.953833
-72.544113 -28.956335 17.847334
-72.408401 -28.824802 17.8999
-72.165497 -28.86775 17.951
-72.293869 -28.7005 17.841249
-72.140144 -28.602358 17.908213
-71.867752 -28.575249 17.952499
-72.027 -28.434334 17.854334
-71.701248 -28.396 17.940498
-71.550003 -28.247 17.9345
-73.876862 -30.610228 18.121183
-73.752998 -30.5 18.086
-73.595833 -30.341583 18.145418
-73.393997 -30.129602 18.128801
-73.299698 -29.924301 18.101599
-73.111298 -29.835602 18.1292
-73.259003 -29.694 18.011
-73.169998 -29.597 18.021999
-72.879005 -29.603498 18.133812
-72.917 -29.378 18.016001
-72.641602 -29.357 18.110899
-72.736 -29.187 18.009001
-72.392723 -29.100555 18.133057
-72.569 -28.999001 18
-72.172623 -28.87125 18.089001
-72.03817 -28.7325 18.143499
-71.883873 -28.582251 18.092125
-71.764755 -28.45225 18.200251
-71.637703 -28.3305 18.0954
-71.421898 -28.1061 18.128698
-73.867256 -30.616919 18.368332
-73.750999 -30.5 18.378
-73.618423 -30.374643 18.391069
-73.399307 -30.144901 18.3797
-73.264496 -29.994499 18.334999
-73.128746 -29.864685 18.382938
-72.908836 -29.632555 18.353834
-72.763504 -29.495499 18.436501
-72.649139 -29.369856 18.353071
-72.503998 -29.213501 18.287001
-72.379753 -29.096188 18.374563
-72.133568 -28.848785 18.351786
-72.025002 -28.729 18.483999
-71.884888 -28.600447 18.364168
-71.66642 -28.365499 18.386499
-71.537163 -28.244333 18.346832
-71.422806 -28.119801 18.370399
-73.862419 -30.60675 18.578917
-73.605003 -30.347832 18.592001
-73.394714 -30.125713 18.600143
-73.251999 -29.99 18.535999
-73.1745 -29.89975 18.601
-73.011002 -29.714001 18.579
-72.917374 -29.625374 18.588499
-72.751999 -29.462 18.6255
-72.656502 -29.356333 18.578333
-72.546005 -29.232 18.585499
-72.397003 -29.081749 18.579374
-72.260498 -28.938999 18.5425
-72.164665 -28.842169 18.579166
-72.026497 -28.700251 18.578251
-71.910667 -28.585999 18.582666
-71.791 -28.464748 18.577499
-71.654999 -28.322502 18.567749
-71.539001 -28.190001 18.528999
-71.472 -28.133999 18.556499
