# .PCD v0.7 - Point Cloud Data file format
VERSION 0.7
FIELDS x y z
SIZE 4 4 4
TYPE F F F
COUNT 1 1 1
WIDTH 138
HEIGHT 1
VIEWPOINT -18.2321 96.2205 -1.35163 -0.354149 -0.00701479 0.0211809 0.934923
POINTS 138
DATA ascii
32.128368 17.379377 5.3606534
32.200367 17.868364 5.3603811
31.94421 18.197384 5.3993735
32.062397 18.052639 5.3646855
31.884125 18.629875 5.394125
32.081081 17.643152 5.6493793
32.200771 17.928595 5.6180735
31.949268 18.191626 5.6305609
32.056496 18.066332 5.6185222
31.950127 18.338346 5.6082878
32.021786 18.404099 5.5996637
31.606192 18.887714 5.6432328
32.131042 17.398048 5.8607197
32.074024 17.636972 5.8981805
32.203743 17.889513 5.8781419
31.953629 18.188339 5.9154892
32.076054 18.059359 5.8624105
31.961285 18.355799 5.8836031
32.013519 18.412174 5.8257365
31.909653 18.650805 5.8608336
31.65061 18.877407 5.8699632
31.855591 18.802443 5.8902049
32.140984 17.400394 6.1247077
32.032795 17.587168 6.1298962
32.195671 17.887468 6.1310625
31.945908 18.206987 6.1491737
32.062462 18.081945 6.1218572
31.949936 18.361187 6.174542
32.017479 18.433313 6.1037922
31.912848 18.637835 6.1755967
32.094002 18.515251 6.0682502
31.618181 18.890228 6.1461382
31.66313 19.070028 6.163929
32.132324 17.41391 6.3622909
32.033112 17.604155 6.3681841
32.180756 17.853048 6.3560233
31.949415 18.209982 6.4007711
32.090847 18.069798 6.3655934
31.938574 18.327898 6.4017105
32.012928 18.442579 6.346498
31.920666 18.714832 6.4713335
32.019501 18.681 6.2705002
31.639723 18.895418 6.3972964
31.624863 19.031212 6.4043131
32.147575 17.429272 6.6499114
32.04538 17.621546 6.627562
32.183334 17.860748 6.6380329
31.955269 18.206354 6.6477447
32.090847 18.079409 6.5998306
31.943075 18.340866 6.64995
32.011654 18.455002 6.6493812
31.900867 18.660961 6.6287599
32.069 18.573334 6.6373334
31.640999 18.911263 6.6125922
31.855345 18.872126 6.6266084
31.661266 19.093737 6.6321836
32.106606 17.447563 6.9013338
32.261669 17.431335 6.8406668
32.030895 17.613714 6.8690767
32.18211 17.858854 6.8787293
31.960533 18.210358 6.9033084
32.102131 18.08367 6.8642364
31.922827 18.310038 6.8620095
32.010979 18.460363 6.9010754
31.926195 18.668917 6.8908334
32.068146 18.541458 6.835938
31.621437 18.911213 6.8705487
31.827494 18.846657 6.8755984
32.014999 18.771999 6.9190001
31.632401 19.073723 6.922667
31.612871 19.353632 6.8861709
32.141018 17.448915 7.1294918
32.026344 17.592165 7.1284676
32.184391 17.873081 7.139349
31.967066 18.214169 7.0978084
32.140759 18.064461 7.1268106
31.913 18.746 7.2290001
31.651297 18.927698 7.0971093
31.861153 18.867973 7.1057777
31.597834 19.048817 7.1233664
31.629417 19.343418 7.1060719
31.380909 19.656366 7.129756
32.111458 17.461948 7.371769
32.040783 17.649441 7.383162
32.167625 17.855015 7.3617911
31.974773 18.216106 7.3486657
32.124516 18.090115 7.3873844
31.912859 18.377428 7.3899841
31.70841 18.689552 7.4003639
31.854544 18.612516 7.380908
31.646193 18.881517 7.3748732
31.83433 18.841413 7.3135209
31.4807 19.164946 7.3846836
31.591114 19.156013 7.3608093
31.75 19.222 7.2919998
31.439426 19.400253 7.3923416
31.579866 19.390276 7.3432221
31.407761 19.622263 7.3761225
31.58005 19.589264 7.3354893
32.140053 17.46911 7.6325588
32.032921 17.645947 7.6191411
32.188957 17.908485 7.6292777
32.109383 18.112854 7.6344318
31.940613 18.329838 7.6341968
32.002331 18.469252 7.6454167
31.919159 18.61907 7.5710096
32.005367 18.506001 7.6602063
31.635756 18.943436 7.6477733
31.624756 19.109091 7.6080985
31.606184 19.367647 7.5793042
31.400814 19.666559 7.6296768
32.14682 17.48031 7.8634653
32.036789 17.640839 7.8628035
32.183369 17.908945 7.8644309
32.11425 18.11817 7.8739924
31.952845 18.37145 7.8835106
31.944517 18.622335 7.871675
32.002251 18.550333 7.89575
31.65509 18.957376 7.9001908
31.617096 19.107016 7.8624749
32.14262 17.489798 8.147625
32.033508 17.650867 8.1369381
32.162468 17.885754 8.1274691
32.130402 18.112125 8.1231241
31.927078 18.349306 8.1271496
32.047287 18.582001 8.1282864
31.603209 19.103712 8.14748
32.099255 17.580954 8.3750143
32.145592 17.869722 8.3494101
32.114571 18.133541 8.3639212
31.946671 17.637339 8.6669521
32.091911 17.862328 8.6222563
32.129448 18.127773 8.6403208
32.101192 17.877277 8.8693867
32.110744 18.126623 8.8883362
32.119267 18.144976 9.135108
31.899561 18.142141 9.380372
32.079216 18.084215 9.2998104
