# .PCD v0.7 - Point Cloud Data file format
VERSION 0.7
FIELDS x y z
SIZE 4 4 4
TYPE F F F
COUNT 1 1 1
WIDTH 123
HEIGHT 1
VIEWPOINT -18.2321 96.2205 -1.35163 -0.354149 -0.00701479 0.0211809 0.934923
POINTS 123
DATA ascii
-56.846661 -5.302475 20.15485
-56.82785 -5.1223335 20.16379
-56.711498 -5.0785999 20.047668
-56.757248 -4.9317503 20.23325
-56.650871 -4.857213 20.14007
-56.592442 -4.6867785 20.215555
-56.430813 -4.5995626 20.081469
-56.353905 -4.3903303 20.150539
-56.254333 -4.1459999 20.236334
-57.067585 -5.3192334 20.408535
-57.040749 -5.1725626 20.413876
-56.940117 -5.0851169 20.343668
-56.845909 -4.8939075 20.388721
-56.742199 -4.7612 20.356602
-56.771 -4.7160001 20.436001
-56.654449 -4.6134429 20.36709
-56.545666 -4.4334793 20.390354
-56.463226 -4.3206668 20.365479
-56.342842 -4.1260929 20.376268
-56.212334 -4.0606666 20.257
-56.289501 -3.9435 20.457001
-56.181252 -3.892972 20.361862
-57.321213 -5.3370833 20.68375
-57.268333 -5.1343336 20.749668
-57.161488 -5.1233587 20.612617
-57 -5.0159998 20.5
-57.058208 -4.9260001 20.647461
-56.936863 -4.8267779 20.571236
-56.83662 -4.6244688 20.607706
-56.797836 -4.4593334 20.698334
-56.676167 -4.3706188 20.615583
-56.579037 -4.1781149 20.647324
-56.450294 -4.0739164 20.566044
-56.382263 -3.8833301 20.64329
-56.242332 -3.7506666 20.561668
-56.283749 -3.6869164 20.677792
-56.209503 -3.6630001 20.601
-57.518536 -5.3438001 20.970266
-57.36528 -5.3933315 20.839571
-57.365505 -5.1300001 20.892107
-57.29475 -4.9630003 20.936251
-57.150757 -4.8507962 20.841148
-57.059162 -4.6594167 20.889418
-56.957603 -4.57025 20.822001
-57.011002 -4.4970002 20.955999
-56.883419 -4.3862619 20.884024
-56.741001 -4.2750001 20.784
-56.793194 -4.2081833 20.922878
-56.66988 -4.091548 20.848881
-56.573669 -3.8884959 20.897905
-56.457981 -3.8144834 20.809816
-56.379562 -3.6179259 20.86861
-56.28944 -3.4306252 20.924
-57.6422 -5.3752413 21.124159
-57.586857 -5.1563053 21.176888
-57.45768 -5.0530996 21.093082
-57.514671 -4.9713335 21.239334
-57.376808 -4.8721838 21.130383
-57.232506 -4.7577505 21.03175
-57.2925 -4.7020001 21.167833
-57.16608 -4.5873957 21.102404
-57.084167 -4.3874168 21.15221
-56.967751 -4.3180833 21.056084
-57.055752 -4.244 21.2355
-56.889542 -4.1147571 21.131098
-56.803623 -3.909375 21.188
-56.692963 -3.8450556 21.096308
-56.595863 -3.6478703 21.141155
-56.474003 -3.5821667 21.027834
-56.519001 -3.4679999 21.195
-56.410931 -3.3702817 21.136286
-56.324249 -3.2302499 21.144501
-57.847443 -5.3715329 21.360651
-57.735748 -5.3797503 21.307251
-57.786221 -5.180778 21.422998
-57.663479 -5.084271 21.343977
-57.583496 -4.8860002 21.409161
-57.451 -4.7775002 21.317499
-57.539001 -4.7453337 21.470001
-57.39167 -4.6172771 21.381805
-57.294334 -4.4327292 21.40377
-57.192829 -4.3425417 21.34025
-57.075485 -4.1347084 21.370264
-56.986 -4.0365 21.324501
-57.02475 -3.9307501 21.472
-56.903187 -3.8625562 21.367088
-56.810966 -3.664 21.425318
-56.691559 -3.6070776 21.310228
-56.593552 -3.3799474 21.376394
-56.535 -3.194 21.458
-56.419052 -3.1455209 21.345982
-57.962418 -5.3025551 21.589167
-57.853752 -5.1333151 21.58798
-57.669739 -4.8556805 21.588305
-57.546234 -4.6663337 21.580732
-57.45533 -4.5428333 21.584835
-57.359386 -4.3850479 21.576647
-57.186432 -4.1406798 21.576529
-57.069733 -3.9383667 21.563034
-56.958 -3.7945001 21.561167
-56.851082 -3.6130416 21.553146
-56.655041 -3.3447566 21.535709
-56.516899 -3.1173 21.524899
-56.466331 -3.0780001 21.545334
-58.395733 -5.4278002 21.880602
-58.439083 -5.1420836 21.951416
-58.313 -4.9525003 21.939499
-58.220627 -4.7978754 21.9305
-58.103668 -4.6464581 21.94125
-58.007999 -4.4785004 21.9175
-57.887928 -4.3309283 21.906643
-57.779003 -4.1626668 21.903833
-57.702499 -4.0405002 21.91325
-57.591534 -3.8771331 21.898335
-57.417164 -3.6234999 21.900331
-57.078663 -3.1190002 21.866669
-58.519001 -5.1999998 22.118999
-58.430584 -5.1120553 22.106222
-58.316002 -4.9545002 22.128
-58.22617 -4.8053331 22.114
-58.105835 -4.631 22.112041
-58.004002 -4.4590001 22.093
-57.902199 -4.3339663 22.101934
