# .PCD v0.7 - Point Cloud Data file format
VERSION 0.7
FIELDS x y z
SIZE 4 4 4
TYPE F F F
COUNT 1 1 1
WIDTH 685
HEIGHT 1
VIEWPOINT -18.2321 96.2205 -1.35163 -0.354149 -0.00701479 0.0211809 0.934923
POINTS 685
DATA ascii
-16.417999 66.485001 -2.944
-16.606251 66.54406 -2.8779998
-16.363268 66.552437 -2.8750751
-16.147251 66.563812 -2.8483751
-15.881031 66.571281 -2.8582113
-15.622951 66.592224 -2.8145876
-16.852278 66.545219 -2.6451943
-16.608709 66.555458 -2.6507914
-16.362888 66.566078 -2.6452498
-16.117502 66.578514 -2.6258667
-15.919162 66.585556 -2.6267395
-15.62115 66.598877 -2.6119084
-15.396617 66.606689 -2.6302166
-15.14427 66.616478 -2.624064
-14.852834 66.631798 -2.5932667
-14.60198 66.6408 -2.622
-14.368099 66.649223 -2.6422167
-14.110504 66.66156 -2.6148164
-13.876617 66.668961 -2.6352501
-13.643777 66.677475 -2.6477778
-16.855749 66.557655 -2.3563499
-16.611418 66.567497 -2.3636253
-16.364527 66.576988 -2.3569002
-16.101604 66.5877 -2.3749065
-15.855468 66.59787 -2.3831353
-15.615667 66.59948 -2.3558497
-15.39932 66.615982 -2.381
-15.134461 66.627457 -2.36935
-14.842672 66.640327 -2.3729074
-14.61346 66.651711 -2.3501251
-14.365206 66.662567 -2.3532479
-14.083575 66.675392 -2.3613999
-13.870338 66.683723 -2.3433621
-13.617151 66.692825 -2.36255
-13.451751 66.702751 -2.4046667
-16.855982 66.56884 -2.1065085
-16.612347 66.577148 -2.0971417
-16.367292 66.58696 -2.1110418
-16.107306 66.599617 -2.1275468
-15.877819 66.607956 -2.143472
-15.64831 66.619179 -2.1232858
-15.361359 66.629204 -2.1296947
-15.151217 66.639679 -2.1137915
-14.870344 66.649185 -2.1400938
-14.613712 66.660164 -2.1089125
-14.399858 66.670975 -2.1071084
-14.131763 66.682762 -2.1053164
-13.858685 66.69545 -2.0988054
-13.658586 66.703857 -2.1226146
-13.45675 66.710838 -2.1505001
-16.862234 66.593887 -1.8609501
-16.627047 66.622337 -1.8347353
-16.391747 66.619301 -1.8822958
-16.159515 66.625023 -1.872496
-15.881458 66.633461 -1.8636583
-15.638433 66.642815 -1.8700875
-15.365417 66.655418 -1.8630834
-15.123025 66.672646 -1.8543854
-14.872056 66.667603 -1.880325
-14.629865 66.680901 -1.8648714
-14.37396 66.690941 -1.8651042
-14.126532 66.7061 -1.8647766
-13.876742 66.717789 -1.85105
-13.631351 66.716805 -1.8972499
-13.4675 66.72834 -1.8635834
-14.3465 66.767502 -1.7585
-14.196751 66.763252 -1.7615001
-13.611 66.762749 -1.76925
-17.120371 66.700798 -1.6517686
-16.86797 66.719749 -1.6306562
-16.637627 66.716888 -1.6649377
-16.351583 66.726555 -1.6872224
-16.128168 66.731194 -1.7003056
-15.859389 66.734886 -1.733889
-15.618334 66.74025 -1.7335417
-15.363625 66.741501 -1.7401249
-15.14725 66.744247 -1.74375
-16.557751 66.752747 -1.5515
-16.359251 66.759583 -1.551
-16.115583 66.765251 -1.5749999
-15.867242 66.767738 -1.6008749
-15.595583 66.779076 -1.5959458
-15.366055 66.78273 -1.6228055
-15.12624 66.796646 -1.6176355
-14.890604 66.797348 -1.636323
-14.645729 66.802742 -1.6408542
-14.356041 66.81675 -1.6370624
-14.114219 66.825516 -1.6462917
-13.884135 66.83667 -1.6606184
-13.624558 66.852898 -1.6353999
-17.14893 66.733391 -1.3731786
-16.885208 66.744041 -1.3872083
-16.787916 66.752831 -1.2983333
-16.608625 66.75708 -1.3600835
-16.361526 66.76815 -1.3566203
-16.123501 66.779099 -1.3708
-15.858 66.78904 -1.378988
-15.597251 66.800858 -1.3578571
-15.402428 66.805557 -1.3975555
-15.152311 66.817894 -1.3649062
-14.848862 66.830811 -1.3475
-14.604041 66.840584 -1.35875
-14.363277 66.851006 -1.3554167
-14.1291 66.860001 -1.3834
-13.878041 66.870979 -1.3764524
-13.648493 66.880318 -1.3732812
-17.1311 66.743492 -1.17265
-17.051498 66.750748 -1.054
-16.853842 66.758827 -1.1089916
-16.613775 66.768211 -1.1133749
-16.364206 66.780373 -1.1035417
-16.109854 66.794228 -1.1342405
-15.883046 66.799156 -1.1567408
-15.643609 66.811348 -1.1283381
-15.376539 66.820351 -1.1212299
-15.128586 66.832451 -1.1166643
-14.851375 66.842873 -1.1090001
-14.606075 66.851654 -1.1077125
-14.36555 66.862938 -1.1087583
-14.102201 66.872589 -1.1271168
-13.898717 66.880661 -1.1249501
-13.607832 66.895279 -1.0974833
-17.095654 66.759552 -0.88282996
-16.873608 66.769112 -0.87987137
-16.611639 66.780174 -0.88712502
-16.366213 66.790642 -0.88059288
-16.132746 66.800613 -0.86107802
-15.885333 66.810875 -0.85452777
-15.646186 66.820763 -0.87782854
-15.388437 66.830002 -0.89050007
-15.131858 66.841743 -0.87774283
-14.864776 66.851486 -0.87083751
-14.608889 66.863342 -0.89436245
-14.367253 66.8713 -0.89512777
-14.111229 66.881622 -0.88774997
-13.887959 66.892326 -0.8566249
-13.63938 66.903809 -0.8901574
-17.116701 66.773933 -0.62375003
-16.849573 66.785942 -0.62975001
-16.610537 66.79525 -0.62660706
-16.382198 66.802765 -0.63863832
-16.102667 66.815956 -0.59429169
-15.880125 66.824753 -0.61406249
-15.623732 66.835297 -0.62947083
-15.391042 66.842583 -0.65162498
-15.159531 66.851906 -0.64243752
-14.842793 66.865288 -0.60998571
-14.611209 66.875374 -0.64295828
-14.369917 66.884781 -0.64013886
-14.092251 66.896454 -0.62590557
-13.87547 66.904877 -0.63736665
-13.653344 66.915627 -0.63956875
-17.112125 66.783226 -0.39628747
-16.843285 66.795639 -0.36197221
-16.62438 66.804375 -0.36341667
-16.3699 66.812553 -0.37805718
-16.249332 66.820671 -0.26816666
-15.629194 66.841187 -0.35197222
-15.372514 66.85157 -0.3452
-15.148881 66.860535 -0.38478571
-14.857333 66.87204 -0.39225003
-14.612709 66.883415 -0.3565
-14.391907 66.894836 -0.36631253
-14.133751 66.905663 -0.3689
-13.877577 66.916061 -0.37295333
-13.657274 66.926964 -0.37304372
-17.10607 66.793892 -0.14553571
-16.89344 66.800491 -0.1526894
-16.62125 66.810562 -0.11212499
-16.390265 66.819366 -0.13848889
-16.248999 66.820496 -0.046375003
-15.629333 66.842461 -0.1125
-15.391362 66.850479 -0.092675
-15.133672 66.860435 -0.11751429
-14.85811 66.875862 -0.15336113
-14.611862 66.885643 -0.10842501
-14.369997 66.896179 -0.14825185
-14.131433 66.906097 -0.098874994
-13.8983 66.917152 -0.11965001
-13.628751 66.92672 -0.11255477
-17.112875 66.792625 0.14241667
-16.863483 66.797935 0.10993167
-16.622837 66.807823 0.087099999
-16.395334 66.817459 0.14219049
-16.104048 66.828667 0.1350119
-15.8626 66.835098 0.1362
-15.650899 66.842583 0.11430476
-15.394051 66.851685 0.1109
-15.136137 66.86219 0.1232
-14.857183 66.874519 0.13811111
-14.612949 66.884804 0.097587503
-14.370418 66.898102 0.10411111
-14.13198 66.904991 0.13942708
-13.888042 66.915749 0.14858334
-13.629821 66.928246 0.12446429
-16.841749 66.707748 0.4605
-16.64575 66.712585 0.46366668
-16.408306 66.719666 0.46386111
-16.155554 66.723839 0.46591666
-15.863556 66.734558 0.47
-15.6095 66.723251 0.48574999
-15.4655 66.732002 0.4815
-14.929 66.749001 0.49250001
-17.14978 66.800125 0.39134377
-16.885363 66.794518 0.34548786
-16.617167 66.801178 0.33185002
-16.348619 66.80555 0.37059525
-16.137917 66.820404 0.33685836
-15.863209 66.825462 0.36358333
-15.611084 66.833878 0.35279766
-15.373344 66.821312 0.37650001
-15.157732 66.839668 0.36931479
-14.851767 66.841606 0.40702623
-14.619844 66.838127 0.39443889
-14.376992 66.865509 0.37956813
-14.140761 66.877922 0.3576389
-13.896319 66.872765 0.41023999
-13.627625 66.90847 0.372675
-16.8349 66.700096 0.63330001
-15.811 66.739502 0.51100004
-15.05 66.738998 0.50300002
-17.10516 66.810326 0.62925994
-16.899946 66.783806 0.60141665
-16.120745 66.853394 0.62275749
-15.8541 66.861954 0.62550002
-15.142824 66.860474 0.608275
-14.868743 66.871605 0.61521214
-14.625458 66.886337 0.6236667
-14.380033 66.85968 0.59013337
-13.618649 66.862038 0.60214543
-16.844601 66.701797 0.8653
-17.148817 66.813148 0.89890003
-16.904945 66.792229 0.85961109
-17.143501 66.7155 1.1472499
-16.863834 66.705429 1.0910667
-17.109501 66.778938 1.1346874
-16.887083 66.788628 1.1491667
-17.1105 66.823242 1.36615
-16.887413 66.832275 1.3813601
-17.111652 66.8274 1.6168
-16.925457 66.835754 1.6248573
-17.128702 66.833473 1.8732048
-16.898067 66.8414 1.8766067
-17.113453 66.839005 2.1364634
-16.886868 66.846733 2.1333499
-17.075884 66.843864 2.3805165
-16.888401 66.852501 2.3650002
-17.099499 66.850037 2.6496427
-16.8813 66.859146 2.6404917
-17.129583 66.853539 2.8911247
-17.116894 66.857681 3.1106784
-16.882936 66.867569 3.1043749
-17.144295 66.862671 3.3666811
-16.885351 66.872978 3.3558166
-17.134491 66.870674 3.6039667
-16.876301 66.878799 3.6275496
-17.136002 66.875725 3.858083
-16.897449 66.883995 3.8615499
-17.137777 66.881165 4.1484442
-16.870678 66.892357 4.1431074
-17.13929 66.885284 4.3907084
-16.861782 66.894897 4.39676
-17.114513 66.893501 4.6268077
-16.905918 66.900681 4.6130838
-17.13088 66.89518 4.8615646
-16.895151 66.905563 4.8557587
-17.133099 66.898254 5.1097417
-16.886051 66.909607 5.1280003
-17.139688 66.90062 5.3729601
-16.881083 66.914703 5.3747916
-17.133783 66.903061 5.6130209
-16.877836 66.915779 5.6241717
-16.623436 66.924133 5.6391211
-17.153557 66.903992 5.8569164
-16.83535 66.919426 5.8880501
-16.605724 66.929451 5.9059501
-13.853064 67.024902 5.8623123
-13.609717 67.038185 5.8522301
-17.148251 66.910477 6.1377497
-16.864679 66.919144 6.1279645
-16.603662 66.929924 6.1119757
-16.344875 66.937683 6.1378126
-14.226 66.996002 6.23
-14.106875 67.015381 6.1506667
-13.866967 67.028282 6.1400056
-13.611028 67.041443 6.1477637
-17.149775 66.911423 6.3916669
-16.840399 66.923302 6.3661628
-16.605875 66.931915 6.3580832
-16.372036 66.938782 6.3742499
-16.112417 66.943665 6.3547916
-14.445375 66.997337 6.3986664
-14.34489 67.00499 6.3598237
-14.107313 67.016815 6.3918123
-13.866409 67.029701 6.3892918
-13.613595 67.043312 6.3947535
-17.149099 66.91256 6.6258502
-16.8405 66.924347 6.6379371
-16.6075 66.935707 6.650167
-16.370525 66.943665 6.6293745
-16.114668 66.950706 6.6463332
-15.852285 66.953972 6.6201787
-14.62818 66.990036 6.6229639
-14.46275 66.998001 6.6905003
-14.336625 67.006569 6.6355319
-14.107666 67.01873 6.6352916
-13.867867 67.031395 6.6007028
-13.60173 67.046974 6.6238732
-17.08956 66.918015 6.8787298
-16.867786 66.925606 6.8750353
-16.607937 66.935249 6.8928747
-16.347292 66.944748 6.8828788
-16.115063 66.9505 6.8890624
-15.879556 66.957184 6.8630443
-15.620852 66.96476 6.8635974
-15.401143 66.969177 6.8686805
-15.146092 66.97686 6.8778572
-14.888793 66.986382 6.859417
-14.676226 66.994339 6.8434877
-14.426 66.998001 6.8179998
-14.613188 67.002731 6.9252081
-14.368142 67.007217 6.8747377
-14.109583 67.021477 6.9049168
-13.869139 67.035004 6.8622227
-13.623944 67.048256 6.8758621
-17.103374 66.925751 7.1114998
-16.85639 66.934525 7.138833
-16.610582 66.943794 7.1369586
-16.374468 66.949966 7.133625
-16.116432 66.953499 7.136097
-15.88175 66.961655 7.1317816
-15.60683 66.970222 7.1091795
-15.3795 66.980339 7.138792
-15.13522 66.988625 7.1385307
-14.853015 66.996223 7.0968471
-14.6195 66.997498 7.0345001
-14.827167 67.00325 7.1324997
-14.643226 67.005081 7.1425629
-14.367427 67.015427 7.1245732
-14.112137 67.026505 7.1131749
-13.884929 67.04039 7.1240001
-13.590103 67.056068 7.1511669
-17.104458 66.92804 7.3555417
-16.858376 66.936287 7.3888531
-16.61175 66.94603 7.393775
-16.350821 66.95459 7.3774428
-16.116789 66.958351 7.4033127
-15.856337 66.969826 7.3761144
-15.58897 66.977867 7.3502975
-15.388249 66.981735 7.3885832
-15.144511 66.992989 7.381381
-14.8805 66.994003 7.46525
-14.644251 66.994751 7.4844999
-15.311 67.002998 7.4274998
-15.0651 67.004967 7.3773003
-14.906334 67.007889 7.3593001
-14.646431 67.012161 7.3877358
-14.341963 67.020981 7.379612
-14.112916 67.033043 7.3591666
-13.852964 67.049133 7.3601751
-13.582712 67.062828 7.4027128
-17.122808 66.885475 7.6044416
-16.873325 66.901772 7.6267962
-16.628765 66.882317 7.6129007
-16.361521 66.906647 7.6191587
-16.122713 66.898232 7.6176219
-15.893408 66.914749 7.615458
-15.646 66.898514 7.6027818
-15.370834 66.922775 7.6112494
-15.111833 66.920357 7.6018124
-14.872299 66.910423 7.6024904
-14.628501 66.943787 7.5811248
-14.401817 66.934853 7.5957336
-14.141723 66.946815 7.6037369
-13.919167 66.949837 7.6222501
-13.631124 66.948624 7.6079998
-13.348875 66.961624 7.6037502
-14.12715 67.026154 7.6452498
-13.896 67.037621 7.6317921
-13.648178 67.038101 7.6501069
-13.356931 67.044296 7.6413856
-17.30575 66.950188 7.802062
-17.143044 66.957542 7.8790832
-16.850435 66.965553 7.8901072
-16.617147 66.970001 7.8561554
-13.619792 67.078224 7.8722425
-13.3746 67.091446 7.9072008
-17.09411 66.958557 8.0641394
-16.867035 66.967064 8.1278582
-16.476418 66.98925 8.107708
-16.7705 66.974747 8.25875
-16.647051 66.978004 8.3151989
-17.121168 66.971611 8.7130556
-17.119396 66.971481 8.9076042
-16.898888 66.980888 8.8914928
-16.676001 66.987503 8.9705
-17.368389 66.967377 9.144557
-17.132483 66.9729 9.1358337
-16.86821 66.982368 9.1506052
-16.60705 66.991631 9.1257381
-16.57 67.0075 9.1110001
-17.3671 66.971413 9.3931026
-17.111183 66.980087 9.3753338
-16.9142 66.984818 9.3675833
-16.637167 66.994957 9.3827505
-16.571068 67.006302 9.3243999
-17.391705 66.974495 9.6501055
-17.151331 66.983559 9.6059914
-16.883383 66.990364 9.6404028
-16.686209 66.997345 9.6244726
-17.157333 67.013664 9.6283331
-16.595703 67.005356 9.648881
-17.130741 66.98674 9.8768778
-16.851 66.996201 9.8653164
-17.006001 67.004997 9.8330002
-16.822166 67.001503 9.8765001
-16.6315 67.007385 9.8833761
-17.131254 66.992226 10.108992
-16.875875 66.996834 10.089626
-17.3685 67.047997 10.1525
-16.850586 67.004333 10.15773
-16.646284 67.008484 10.128306
-17.35741 66.990479 10.406621
-17.132845 66.995552 10.323965
-17.09675 67.003098 10.41715
-16.882362 67.009399 10.382687
-16.621422 67.015877 10.380621
-17.3859 66.989372 10.545799
-17.169334 66.995422 10.60675
-17.358 67.003998 10.651
-17.090889 67.008209 10.60825
-16.874599 67.012764 10.629359
-16.6229 67.018456 10.627643
-17.3365 67.005493 10.9935
-16.912889 67.011948 10.795639
-16.638285 67.030037 10.847619
-17.367222 66.993752 11.1315
-17.185001 66.998505 11.1755
-17.353167 67.006332 11.140667
-17.124249 67.011551 11.156167
-16.874527 67.021141 11.185334
-16.7425 67.022003 11.192499
-16.190001 67.532997 11.062
-17.375999 66.995667 11.374667
-17.509501 67.001251 11.37525
-17.401936 67.014366 11.390266
-17.135813 67.012764 11.377024
-16.885302 67.025169 11.359169
-16.630732 67.033607 11.379458
-16.131001 67.486 11.462
-17.397062 67.011459 11.614187
-17.123096 67.018852 11.603822
-16.891438 67.030067 11.616959
-16.648363 67.039467 11.620999
-16.122166 67.490463 11.615959
-16.139832 67.518166 11.604835
-17.522665 67.015327 11.854
-17.393621 67.017136 11.871406
-17.141537 67.023834 11.877905
-16.873751 67.032463 11.881322
-16.635656 67.042061 11.850875
-16.199999 67.521667 11.874333
-17.461 66.997002 12.143
-17.514999 67.013504 12.112
-17.382 67.016403 12.13975
-17.142221 67.027008 12.143416
-16.851751 67.042 12.117057
-16.601187 67.051437 12.112625
-16.183001 67.488998 12.001
-17.469 67.019997 12.497
-17.135111 67.029228 12.323779
-16.847393 67.041832 12.334191
-16.599874 67.055 12.351318
-17.352335 67.02478 12.612056
-17.037376 67.041 12.701375
-16.901251 67.044502 12.691
-16.659 67.07 12.6945
-17.348501 67.032204 12.913639
-17.127279 67.035309 12.849598
-16.853361 67.04731 12.865222
-16.607168 67.063377 12.861791
-17.33707 67.033501 13.127572
-17.101917 67.042534 13.145167
-16.856127 67.054131 13.116292
-16.609812 67.070068 13.112875
-17.365614 67.041862 13.3755
-17.106251 67.055496 13.397708
-16.850866 67.061172 13.373136
-16.621601 67.071648 13.397551
-17.357237 67.049248 13.600543
-17.104418 67.060913 13.640458
-16.862333 67.069786 13.613887
-16.633209 67.087601 13.618708
-13.592 67.200386 13.726666
-17.415501 67.072998 13.978001
-17.1145 67.077744 13.979751
-16.858334 67.078331 13.995
-16.52 67.097504 13.990499
-14.1511 67.178452 13.9052
-13.821 67.190712 13.826647
-13.624687 67.197029 13.875406
-17.378416 67.070557 14.130417
-17.115 67.076935 14.105749
-16.907822 67.082985 14.124442
-16.643406 67.095787 14.132155
-16.385557 67.092567 14.112025
-16.147566 67.097717 14.136379
-14.189 67.171997 14.025
-13.86855 67.200104 14.18735
-13.631639 67.209694 14.147585
-17.372562 67.086861 14.384135
-17.112574 67.095726 14.376187
-16.97975 67.082748 14.36825
-16.652451 67.09864 14.379354
-16.42153 67.100235 14.344452
-16.132751 67.10675 14.351257
-15.886556 67.115692 14.354598
-14.344218 67.18853 14.431018
-14.119237 67.19976 14.357048
-13.873104 67.210854 14.398666
-13.637543 67.220085 14.396626
-13.350298 67.227104 14.370025
-17.564528 67.075363 14.642167
-17.387209 67.09726 14.647632
-17.136797 67.100288 14.618083
-16.868166 67.113091 14.603346
-16.608858 67.112526 14.643655
-16.384857 67.116959 14.63647
-16.132042 67.120171 14.60825
-15.87545 67.127899 14.63425
-15.652375 67.131149 14.64199
-14.783999 67.178337 14.689334
-14.612222 67.185028 14.648236
-14.389176 67.194244 14.627782
-14.112249 67.206177 14.615895
-13.882695 67.217529 14.647805
-13.658531 67.228027 14.628281
-13.3405 67.231667 14.6415
-13.3145 67.25425 14.56375
-17.382488 67.113304 14.865369
-17.113333 67.114845 14.872635
-16.875439 67.122627 14.889688
-16.637535 67.127983 14.861049
-16.392149 67.131256 14.867999
-16.137629 67.138863 14.852465
-15.875417 67.149933 14.883763
-15.6216 67.151672 14.835734
-15.342999 67.166664 14.903834
-15.085999 67.180504 14.922833
-14.861905 67.184265 14.886976
-14.635117 67.196793 14.901283
-14.399977 67.204163 14.842668
-14.137926 67.217865 14.883948
-13.912999 67.227333 14.875667
-13.624889 67.239006 14.910333
-13.400625 67.244438 14.809625
-13.58625 67.254753 14.93875
-13.399292 67.256302 14.950293
-17.030499 67.123505 15.032
-16.870501 67.125877 15.030251
-16.6124 67.142448 15.0825
-16.389439 67.148064 15.102688
-16.154772 67.157402 15.120031
-15.925 67.168892 15.061055
-15.595438 67.174881 15.160313
-15.334688 67.186874 15.117094
-15.0985 67.198334 15.062667
-14.91965 67.201996 15.12735
-14.621124 67.211006 15.1104
-14.374183 67.223106 15.129991
-14.096449 67.235786 15.111966
-13.89175 67.241623 15.153749
-13.693001 67.242004 15.041334
-13.632889 67.274666 15.192223
-13.377434 67.260933 15.112333
-17.1567 67.137886 15.321863
-16.792 67.151505 15.3735
-16.662333 67.160667 15.427333
-15.783 67.204002 15.285
-15.621334 67.183998 15.273
-15.420167 67.194725 15.277638
-15.102444 67.211449 15.344777
-14.88103 67.217056 15.359843
-14.622558 67.225708 15.363042
-14.456 67.233002 15.323
-14.152737 67.245323 15.364124
-13.842501 67.244751 15.25475
-13.653666 67.249329 15.259334
-15.204 67.258003 15.385
-14.389 67.264496 15.474501
-14.137209 67.256912 15.4105
-13.866049 67.260384 15.382357
-13.612458 67.267296 15.359764
-17.162649 67.153702 15.6843
-16.91325 67.166252 15.662584
-16.647499 67.171501 15.678
-16.363344 67.17984 15.671375
-16.135761 67.191833 15.620655
-15.861314 67.198921 15.642033
-15.614734 67.20697 15.669867
-15.388583 67.215454 15.700583
-15.245001 67.225334 15.68
-14.813667 67.233002 15.519
-14.51 67.245499 15.552999
-15.003 67.252998 15.516
-14.377666 67.259834 15.645057
-14.154166 67.261765 15.629189
-13.866654 67.280014 15.632643
-13.616 67.279449 15.63085
-17.131287 67.162498 15.879643
-16.878702 67.170158 15.878059
-16.637438 67.17794 15.84475
-16.35832 67.193855 15.889572
-16.126389 67.196449 15.869537
-15.862666 67.207726 15.868223
-15.644 67.228668 15.932334
-15.363626 67.227501 15.884563
-15.159017 67.236748 15.877032
-14.833208 67.246834 15.885084
-14.733 67.247002 15.870501
-14.620584 67.259018 15.932683
-14.109791 67.27179 15.850624
-13.854167 67.282532 15.868
-13.6004 67.290756 15.875101
-13.382681 67.296822 15.87857
-17.121477 67.168884 16.134523
-16.866095 67.178169 16.13274
-16.6045 67.191689 16.114124
-16.357899 67.201813 16.124353
-16.112459 67.214165 16.147207
-15.883098 67.22509 16.128403
-15.624051 67.233391 16.137466
-15.3731 67.237 16.1138
-15.104688 67.245247 16.154686
-14.945401 67.245804 16.245802
-14.653334 67.246666 16.247749
-13.283 67.237 16.151501
-15.08075 67.252747 16.153
-14.851097 67.260307 16.12525
-14.645688 67.267624 16.131062
-14.347135 67.27803 16.173634
-14.136666 67.297668 16.20075
-13.799666 67.295837 16.072001
-13.389751 67.30661 16.151939
-17.154806 66.900612 16.442999
-16.863701 66.921616 16.442966
-16.630501 66.917336 16.449835
-16.3055 66.927002 16.4765
-16.09425 66.972504 16.4235
-15.901751 66.967255 16.440752
-15.677999 66.940498 16.4615
-15.306167 66.953583 16.461668
-15.119917 66.963089 16.458374
-14.864902 66.964134 16.471834
-14.612667 66.962669 16.478668
-14.2985 66.990501 16.467251
-14.087 66.975998 16.486752
-13.8965 66.99025 16.48
-13.712 66.9935 16.4795
-17.139797 67.111534 16.363787
-16.87875 67.146835 16.332499
-16.636721 67.126297 16.334969
-16.379898 67.13916 16.358315
-16.116381 67.141693 16.354738
-15.901624 67.176422 16.355707
-15.682238 67.196663 16.308382
-15.382277 67.160637 16.370834
-15.112944 67.172836 16.375252
-14.893733 67.167557 16.377966
-14.642132 67.153885 16.385477
-14.34 67.131248 16.425249
-14.150042 67.152885 16.410633
-14.3815 67.252831 16.325167
-14.112778 67.267448 16.292028
-13.885875 67.272942 16.347065
-13.676 67.250999 16.427
-13.403999 67.26767 16.311501
-16.144835 66.9245 16.521667
-15.8995 66.936996 16.5315
-15.582 66.941002 16.524
-15.320168 66.957672 16.531834
-15.104084 66.958664 16.534332
-14.908001 66.9645 16.528999
-14.665001 66.967499 16.529333
-14.3315 66.975494 16.5175
