# .PCD v0.7 - Point Cloud Data file format
VERSION 0.7
FIELDS x y z
SIZE 4 4 4
TYPE F F F
COUNT 1 1 1
WIDTH 111
HEIGHT 1
VIEWPOINT -18.2321 96.2205 -1.35163 -0.354149 -0.00701479 0.0211809 0.934923
POINTS 111
DATA ascii
-109.9558 -70.317192 13.1332
-110.07999 -70.139 13.124001
-109.91782 -70.143166 13.126334
-111.033 -71.620499 13.3605
-111.016 -71.283997 13.313
-110.9157 -71.376198 13.4027
-110.6785 -71.068001 13.4115
-110.426 -70.803001 13.427
-109.961 -70.342697 13.373199
-110.048 -70.119003 13.302
-109.85001 -70.100502 13.425
-111.91451 -72.609505 13.608
-111.71767 -72.360664 13.636001
-111.4925 -72.140503 13.6385
-111.07166 -71.645996 13.598
-110.8735 -71.419495 13.616
-110.643 -71.154663 13.642333
-110.443 -70.917336 13.615001
-110.338 -70.746002 13.507
-110.2395 -70.683998 13.635
-110.00767 -70.416664 13.646335
-109.791 -70.169502 13.6185
-109.59701 -69.939667 13.623333
-111.94 -72.654495 13.880751
-111.763 -72.428001 13.93
-111.72 -72.400002 13.833
-111.54833 -72.176666 13.881333
-111.335 -71.93 13.8825
-111.11466 -71.674332 13.883667
-110.896 -71.434662 13.852333
-110.763 -71.232002 13.937
-110.645 -71.156998 13.828
-110.541 -70.981003 13.906
-110.406 -70.843002 13.887501
-110.297 -70.721001 13.872
-110.246 -70.688004 13.772
-110.0425 -70.439499 13.881001
-109.926 -70.257004 13.958
-109.855 -70.210495 13.811
-109.727 -70.023003 13.915
-109.55801 -69.84433 13.888667
-111.93567 -72.615334 14.171333
-111.847 -72.483002 14.083
-111.6465 -72.240997 14.1285
-111.443 -72.000999 14.222
-111.422 -71.987 14.0805
-111.214 -71.739502 14.13
-110.90324 -71.411003 14.157249
-110.7805 -71.244003 14.0765
-110.582 -71.0075 14.1415
-110.564 -70.996002 14.002
-110.3865 -70.778999 14.116
-110.145 -70.505997 14.216
-110.1115 -70.484497 14.074
-109.93533 -70.262672 14.143333
-109.765 -70.049004 14.196
-109.743 -70.033997 14.054
-109.5465 -69.802002 14.115
-112.019 -72.707504 14.4335
-111.92633 -72.57267 14.343333
-111.6795 -72.263 14.414
-111.659 -72.249001 14.269
-111.4595 -72.011993 14.366
-111.258 -71.768997 14.463
-111.2455 -71.760002 14.3195
-110.88575 -71.371002 14.365
-110.60699 -71.024666 14.377666
-110.415 -70.798332 14.351001
-110.17225 -70.523499 14.3815
-109.939 -70.266495 14.375
-109.777 -70.056664 14.381332
-109.56934 -69.816666 14.347
-112.049 -72.727005 14.6245
-111.928 -72.536331 14.610001
-111.707 -72.281494 14.6045
-111.537 -72.063004 14.705
-111.48351 -72.028 14.558001
-111.278 -71.781006 14.604
-110.9256 -71.408997 14.585199
-110.6675 -71.064003 14.617001
-110.439 -70.814003 14.5865
-110.2 -70.542 14.594
-109.9385 -70.266747 14.581249
-109.8795 -70.123001 14.625999
-109.752 -69.934998 14.737
-109.6425 -69.864502 14.587
-112.185 -72.816498 14.8315
-112.042 -72.723999 14.954
-111.95 -72.552002 14.9205
-112.047 -72.392998 14.959
-111.90933 -72.412666 14.866333
-111.66 -72.142998 14.816
-111.004 -71.506996 14.890667
-110.96033 -71.362 14.8765
-111.087 -71.230003 14.999
-110.8585 -71.161499 14.87475
-109.94867 -70.273659 14.882333
-110.112 -70.054001 14.93
-109.96861 -70.137192 14.8832
-112.129 -72.780998 15.062
-111.9465 -72.550507 15.132
-112.0782 -72.367599 15.1266
-111.93167 -72.428001 15.152
-111.028 -71.523499 15.127
-110.962 -71.363998 15.126
-109.9625 -70.283005 15.115499
-110.10633 -70.051338 15.113334
-109.95483 -70.118332 15.139
-111.941 -72.547333 15.367
-112.05875 -72.344246 15.37675
-111.947 -72.438507 15.3915
