# .PCD v0.7 - Point Cloud Data file format
VERSION 0.7
FIELDS x y z
SIZE 4 4 4
TYPE F F F
COUNT 1 1 1
WIDTH 108
HEIGHT 1
VIEWPOINT -18.2321 96.2205 -1.35163 -0.354149 -0.00701479 0.0211809 0.934923
POINTS 108
DATA ascii
22.002001 73.694 37.133999
22.1465 73.888504 37.183502
21.898418 73.68071 37.397499
22.113714 73.921425 37.357788
22.319 73.984001 37.263
22.3092 74.090302 37.392998
22.535 74.331001 37.441002
21.90275 73.692749 37.639194
22.0921 73.933495 37.627602
22.317322 74.127502 37.642445
22.486166 74.353165 37.645832
22.549252 74.383499 37.6175
22.698376 74.546539 37.64629
21.891678 73.706108 37.858318
22.1077 73.955498 37.875404
22.317375 74.141251 37.897751
22.486 74.362 37.901253
22.560501 74.429161 37.85817
22.6856 74.566605 37.8708
21.911648 73.721695 38.125851
22.1096 73.970795 38.124702
22.318626 74.153061 38.105061
22.487751 74.374496 38.108498
22.5625 74.445168 38.134502
22.689402 74.588295 38.137302
21.8948 73.729553 38.368904
22.069168 73.956337 38.344501
22.140751 74.007248 38.396248
22.31967 74.165283 38.352116
22.488001 74.382332 38.342335
22.564499 74.460495 38.394749
22.7052 74.612793 38.365303
21.883293 73.742081 38.618752
21.9485 73.75 38.647499
22.069 73.96833 38.641834
22.141499 74.018005 38.602501
22.320946 74.179893 38.639835
22.4895 74.397507 38.643002
22.569 74.484001 38.649166
22.699749 74.620117 38.598999
21.915249 73.760147 38.870003
22.07 73.980751 38.901501
22.144165 74.035332 38.853832
22.332001 74.194748 38.876801
22.49 74.408249 38.902
22.57 74.491997 38.800999
22.66811 74.600441 38.881729
21.893499 73.698708 39.229164
22.044001 73.719002 39.238998
21.904001 73.758751 39.10075
22.057125 73.901627 39.151375
22.170002 74.060249 39.167122
22.328896 74.172089 39.136314
22.480667 74.387001 39.133167
22.5 74.280998 39.230999
22.660555 74.60733 39.145554
21.912209 73.804329 39.417332
22.200249 74.145004 39.479752
22.33675 74.214752 39.364998
22.4445 74.371498 39.411003
22.689165 74.6455 39.376167
21.911213 73.817879 39.658264
22.1185 74.054298 39.626301
22.271999 74.216103 39.629402
22.460125 74.430878 39.597122
22.675571 74.646858 39.627857
21.905531 73.829414 39.902557
22.104198 74.053497 39.873798
22.283699 74.225502 39.870399
22.461084 74.442749 39.848
22.65519 74.638184 39.863628
21.921835 73.855003 40.131054
22.113749 74.075752 40.145
22.27825 74.235252 40.099373
22.463501 74.460915 40.143085
22.667313 74.664932 40.134811
21.93985 73.894493 40.367851
22.115875 74.091255 40.39925
22.279625 74.246376 40.301998
22.370083 74.364624 40.428211
22.637699 74.6483 40.362099
22.747999 74.752998 40.444
22.7505 74.755997 40.342499
21.9431 73.91465 40.626049
22.1262 74.114197 40.629902
22.347647 74.345993 40.636082
22.637186 74.653999 40.627563
22.927502 75.045898 40.623901
22.099201 74.103195 40.867069
22.321356 74.335075 40.877571
22.60881 74.609055 40.847954
22.836599 74.699806 40.877998
21.997 74.000999 41.132
22.130112 74.153442 41.110195
22.339262 74.339836 41.110905
22.603416 74.635666 41.126804
22.110498 74.109337 41.357502
22.371334 74.184502 41.4785
22.352501 74.305634 41.360794
22.528 74.454002 41.458
22.497 74.519997 41.347
22.622833 74.648758 41.357456
22.168999 74.086334 41.559998
22.358418 74.181366 41.61475
22.563 74.199501 41.629501
22.466999 74.426003 41.504002
22.571333 74.377831 41.650833
22.657291 74.668671 41.596626
