# .PCD v0.7 - Point Cloud Data file format
VERSION 0.7
FIELDS x y z
SIZE 4 4 4
TYPE F F F
COUNT 1 1 1
WIDTH 82
HEIGHT 1
VIEWPOINT -18.2321 96.2205 -1.35163 -0.354149 -0.00701479 0.0211809 0.934923
POINTS 82
DATA ascii
-30.804249 66.458748 5.4724998
-30.459999 66.468002 5.4565001
-30.834351 66.447151 5.622683
-30.592937 66.454758 5.6113749
-30.45475 66.456749 5.6100001
-31.058687 66.448128 5.8798332
-30.863556 66.447632 5.8619075
-30.593473 66.459023 5.862514
-30.458666 66.465332 5.8670001
-33.130791 66.389709 6.1168571
-31.333349 66.451157 6.1712499
-31.120344 66.446045 6.1270361
-30.851358 66.454674 6.1388097
-30.619692 66.464783 6.1313806
-30.461166 66.468834 6.1493335
-33.112823 66.398697 6.3968334
-32.885704 66.403831 6.3802381
-31.585352 66.444656 6.37605
-31.360001 66.449402 6.3933001
-31.13205 66.45565 6.4063005
-30.862535 66.463203 6.3753695
-30.598791 66.469681 6.3817501
-30.463749 66.473999 6.3812499
-33.099148 66.40609 6.6205001
-32.900497 66.413567 6.6360836
-32.654682 66.418381 6.6271787
-31.611248 66.449188 6.6008749
-31.33696 66.46096 6.6077504
-31.153625 66.460663 6.6008334
-30.861238 66.467316 6.6334167
-30.624298 66.47596 6.6565828
-30.469168 66.483498 6.6395001
-33.081734 66.412888 6.8691835
-32.911003 66.419556 6.8971872
-32.631355 66.427528 6.8736768
-32.407028 66.431213 6.8454304
-32.137169 66.440109 6.8711777
-31.895639 66.446655 6.846931
-31.646593 66.454742 6.8529072
-31.334501 66.463928 6.873786
-31.104654 66.468132 6.8600698
-30.88575 66.475243 6.8948126
-30.648375 66.480339 6.8992081
-30.4715 66.487747 6.8972502
-33.094669 66.422684 7.1006041
-32.841587 66.427345 7.1222029
-32.590416 66.435211 7.1386247
-32.408127 66.439125 7.1377635
-32.145447 66.447754 7.1384997
-31.901375 66.454086 7.1401668
-31.646666 66.460381 7.1034999
-31.337547 66.46933 7.1423702
-31.107986 66.473915 7.1590972
-30.898199 66.477005 7.1311998
-30.658876 66.480125 7.1072917
-30.473499 66.492004 7.0515003
-33.106487 66.415718 7.3685002
-32.887306 66.419533 7.3824725
-32.622581 66.424332 7.4028502
-32.371498 66.427849 7.4085493
-32.135803 66.443825 7.3523612
-31.914301 66.422348 7.4182005
-31.640173 66.436409 7.3803558
-31.334106 66.421684 7.4238691
-31.116762 66.429596 7.4184523
-30.849508 66.448135 7.3930168
-30.621304 66.445946 7.3970742
-30.46825 66.459091 7.4134169
-32.590061 66.392807 7.5961876
-32.380699 66.394371 7.5932999
-32.123604 66.418007 7.5999999
-31.878717 66.428329 7.6148667
-31.6465 66.426178 7.6192617
-31.401623 66.41861 7.5897918
-31.130548 66.429619 7.5914283
-30.862083 66.427254 7.5931668
-30.601101 66.449417 7.6243949
-30.450001 66.408752 7.5580001
-30.814999 66.503998 7.6554999
-30.621666 66.502945 7.7220001
-30.48 66.504997 7.6469998
-30.701 66.499001 7.8559999
