# .PCD v0.7 - Point Cloud Data file format
VERSION 0.7
FIELDS x y z
SIZE 4 4 4
TYPE F F F
COUNT 1 1 1
WIDTH 644
HEIGHT 1
VIEWPOINT -18.2321 96.2205 -1.35163 -0.354149 -0.00701479 0.0211809 0.934923
POINTS 644
DATA ascii
1.4589286 -38.104263 -0.051345244
1.5274 -38.018803 -0.0438
1.6291279 -37.875767 -0.048875
1.7311668 -37.740334 -0.044500001
1.8413134 -37.577023 -0.051693331
1.9554584 -37.396599 -0.080013886
2.0403891 -37.299557 -0.036322221
-0.41307822 -40.881817 0.17631377
-0.30199999 -40.710064 0.16396669
-0.19969445 -40.575474 0.15525
-0.085222222 -40.415188 0.15181944
0.034730162 -40.258892 0.15632541
0.13019793 -40.113068 0.14585936
0.21804166 -39.960434 0.11306944
1.4074942 -38.296345 0.12886904
1.4517956 -38.177574 0.068848483
1.5814948 -38.110081 0.18036111
1.6466976 -37.928585 0.096397616
1.7926779 -37.817738 0.18595001
1.7450002 -37.747749 0.047499999
1.8935375 -37.623524 0.13348214
2.0114999 -37.524002 0.182
1.9719 -37.440125 0.066955559
2.1090734 -37.344936 0.1558235
-1.7610183 -42.795143 0.41718185
-1.8512182 -42.690937 0.34604374
-0.37450001 -41.109249 0.36524999
-0.32295001 -40.865753 0.38272777
-0.22377777 -40.809002 0.39266667
-0.13703664 -40.629292 0.37427506
0 -40.52 0.405
-0.065812498 -40.43792 0.43349999
0.054196429 -40.379368 0.35993972
0.15906094 -40.165382 0.38752174
0.27818751 -40.046188 0.34300002
0.21675 -39.968124 0.46375
1.3979475 -38.300304 0.37535238
1.536 -38.325752 0.32749999
1.44875 -38.197765 0.40022504
1.6036953 -38.104939 0.33718094
1.6795416 -37.906055 0.37100333
1.8044249 -37.840424 0.31262499
1.8755988 -37.654179 0.37920129
2.0210371 -37.565964 0.28318518
1.9742142 -37.434223 0.43342265
2.101203 -37.3568 0.3434037
2.1903362 -37.165543 0.36799163
2.3565288 -36.952919 0.40661272
-1.6578333 -42.806877 0.51745838
-1.8060045 -42.678699 0.57148027
-1.6355163 -42.651073 0.65505755
-0.56212384 -41.117222 0.64572269
-0.47675002 -41.042679 0.70400006
-0.42827246 -40.891033 0.62538642
-0.29681069 -40.701061 0.68198925
-0.20355557 -40.566746 0.65881747
-0.083147623 -40.400272 0.63056511
0.0104 -40.320866 0.65208334
0.096676439 -40.138237 0.63167334
0.20754667 -39.961708 0.63551331
0.29484725 -39.841717 0.63863188
0.40856215 -39.679245 0.64773148
1.0270834 -38.828835 0.72941667
1.3437245 -38.373474 0.61869323
1.4521178 -38.177631 0.62262022
1.5688901 -38.078178 0.68078339
1.6620519 -37.878048 0.60367024
1.797119 -37.854713 0.74461901
1.8763708 -37.647305 0.6510914
2.0178573 -37.545284 0.73271435
1.9711857 -37.421486 0.6145286
2.0899417 -37.355324 0.66575468
2.1877155 -37.163723 0.62268293
2.2928751 -37.102875 0.65641665
2.8714848 -36.13575 0.65694392
2.969861 -35.962891 0.60961115
3.0545802 -35.86536 0.66374165
3.1902003 -35.67165 0.63377345
-1.7712857 -42.773003 0.93899995
-1.6472709 -42.79739 0.94021666
-1.8322171 -42.647781 0.86753607
-1.622744 -42.656651 0.89883786
-1.4295001 -42.521 0.90849996
-1.3925596 -42.338154 0.87016678
-0.80070001 -41.4454 0.85960007
-0.70310086 -41.321941 0.83427936
-0.58037865 -41.114315 0.86778826
-0.41549999 -41.003998 0.8175
-0.51499999 -40.999001 0.90200001
-0.3791095 -40.89603 0.87831455
-0.23566668 -40.764 0.8736667
-0.28179169 -40.698959 0.87479168
-0.14785238 -40.60569 0.87753576
-0.079147622 -40.397526 0.87589997
0.068120003 -40.348164 0.82362497
0.1223955 -40.137936 0.87220514
0.27746665 -40.039818 0.81668335
0.220375 -39.957489 0.88832504
0.34643835 -39.843063 0.85762674
0.44221562 -39.63102 0.86828446
0.52600002 -39.5065 0.75250006
0.63074094 -39.368538 0.86916399
0.71719998 -39.219868 0.89740002
0.91658938 -38.932896 0.87821424
1.0190277 -38.857281 0.85525006
1.1481712 -38.624229 0.87158054
1.3428813 -38.340397 0.84415817
1.501 -38.326 0.76200002
1.4595534 -38.151089 0.90719289
1.5850557 -38.120953 0.81198335
1.6679549 -37.864632 0.87656885
1.744889 -37.744781 0.85144436
1.8297462 -37.619656 0.87357819
1.9694242 -37.422779 0.87495154
2.0822811 -37.298019 0.86026984
2.1900172 -37.097313 0.86745143
2.3508232 -36.878887 0.85228169
2.472625 -36.673443 0.87792504
2.5646887 -36.562263 0.86636174
2.6664095 -36.408897 0.86215353
2.7653 -36.250397 0.94590008
2.8571463 -36.129562 0.86984807
2.9723113 -35.94532 0.85291672
3.0739136 -35.846558 0.90621674
3.1827557 -35.634396 0.87703544
-1.8309361 -42.607502 1.1150666
-1.6200961 -42.618145 1.1242992
-1.4125 -42.293388 1.1292833
-1.321821 -42.185764 1.1464859
-1.219875 -42.034126 1.0886251
-1.1221958 -41.894772 1.1399739
-0.92755491 -41.608665 1.123832
-0.79544735 -41.430935 1.1528164
-0.72399998 -41.297001 1.168
-0.61506903 -41.164661 1.1316526
-0.51499999 -40.992664 1.1346667
-0.41527018 -40.859093 1.1344784
-0.28076851 -40.683186 1.1258241
-0.2068 -40.548138 1.14535
-0.084344216 -40.369034 1.1493447
0.07533136 -40.142975 1.1411635
0.20457499 -39.962875 1.1464624
0.27916819 -39.878212 1.125891
0.41221386 -39.657127 1.1233065
0.53904444 -39.56142 1.1535778
0.6046719 -39.364826 1.1269878
0.714625 -39.218624 1.086
0.80121267 -39.119282 1.1300952
0.90995586 -38.922668 1.1215351
1.0271562 -38.803394 1.14355
1.1133786 -38.623695 1.1399868
1.2535 -38.513752 1.027
1.2449958 -38.453686 1.1528974
1.360557 -38.36097 1.1499285
1.5 -38.301998 1.217
1.4604143 -38.149258 1.0990304
1.5735757 -38.12413 1.1786524
1.6586367 -37.891075 1.116345
1.8010134 -37.825191 1.2024734
1.7439333 -37.732952 1.0889167
1.8767442 -37.631554 1.1494523
2.0180831 -37.5355 1.1919999
1.9654377 -37.403107 1.0867083
2.0889244 -37.333084 1.1436163
2.1902018 -37.099171 1.1236565
2.2907917 -37.096199 1.151175
2.2406363 -36.946095 1.2422729
2.3332791 -36.888283 1.1166422
2.4356601 -36.703094 1.129001
2.5608356 -36.557362 1.1005499
2.6571 -36.400509 1.0998322
2.7581253 -36.252625 1.04975
2.8411417 -36.121902 1.1327487
2.9631181 -35.930408 1.1332495
3.0913551 -35.797073 1.1194326
3.212146 -35.613285 1.1034379
3.36342 -35.576283 1.08807
-1.7566249 -42.76646 1.3921666
-1.6796111 -42.828613 1.3895
-1.8451906 -42.639286 1.3670714
-1.6352569 -42.644661 1.3662995
-1.429 -42.532001 1.3609999
-1.546 -42.478752 1.38275
-1.3823472 -42.349972 1.3606111
-1.3199167 -42.155552 1.3971145
-1.24375 -42.04475 1.2585
-1.131128 -41.893669 1.3710874
-1.025125 -41.738373 1.3943751
-0.90510708 -41.562004 1.3755238
-0.78416193 -41.398792 1.3792332
-0.72366667 -41.282581 1.3550278
-0.60333812 -41.130741 1.3724155
-0.45587501 -41.088001 1.301625
-0.52516669 -40.948536 1.3981334
-0.3859289 -40.856079 1.3623428
-0.241 -40.760498 1.3340001
-0.28275004 -40.666481 1.3792634
-0.16483334 -40.601875 1.343585
-0.077461906 -40.385418 1.3874466
0.058233332 -40.351078 1.2928389
0.11936212 -40.131405 1.3599148
0.28240001 -40.045601 1.2772
0.20700002 -39.943001 1.4000417
0.33408931 -39.840492 1.3272476
0.41128689 -39.607258 1.3850119
0.51987499 -39.574398 1.3241041
0.48516667 -39.493874 1.4157917
0.59996659 -39.346642 1.3627303
0.70955837 -39.204323 1.3679464
0.79927778 -39.080734 1.3899646
0.91962636 -38.884911 1.3750634
1.0316869 -38.766972 1.3520607
1.3034832 -38.308479 1.3850096
1.408862 -38.153355 1.3744382
1.5271083 -38.054657 1.3755333
1.628091 -37.880505 1.3641863
1.7256722 -37.731224 1.3511223
1.8141184 -37.602428 1.3534594
1.9357575 -37.429207 1.3548957
2.3191535 -36.839443 1.3686732
2.4458189 -36.669285 1.3803922
2.5736966 -36.532688 1.3274083
2.6654913 -36.349682 1.3604524
2.7377918 -36.240059 1.3542292
2.8448894 -36.105026 1.3858582
-1.6521463 -42.591438 1.6121112
-1.569875 -42.411625 1.6386251
-1.4205 -42.266502 1.54475
-1.5615001 -42.214767 1.7144001
-1.3447094 -42.123024 1.638108
-1.1428299 -41.909336 1.6417638
-0.08770185 -40.366333 1.6136063
0.022891667 -40.359955 1.730175
0.088120244 -40.149204 1.6344628
1.1920428 -38.165344 1.6558611
1.562234 -38.069881 1.6472559
1.6343232 -37.873337 1.6453552
1.7976905 -37.813152 1.6457858
1.7266191 -37.721836 1.6564524
1.8543075 -37.611847 1.6395885
2.0114999 -37.524498 1.6245
1.925133 -37.43018 1.6548734
2.0267 -37.379726 1.580425
1.946 -37.030502 1.7155
2.1000352 -36.85231 1.611371
2.3958406 -36.804417 1.5979707
2.1875675 -36.65786 1.7014101
2.4060924 -36.672718 1.6435105
2.5771489 -36.613461 1.6103879
2.3626664 -36.3745 1.7251667
2.7786357 -36.309483 1.587743
2.744 -36.234001 1.7
2.872195 -36.134052 1.5884784
-1.6622584 -42.271683 1.8477833
-1.6093668 -42.155399 1.8879038
-1.3307089 -42.087883 1.8535341
-1.5545 -41.977997 1.9514999
-1.1114733 -41.894691 1.8752
-0.73300004 -41.4645 1.7655001
-0.027000001 -40.237999 1.798
0.066190474 -40.099201 1.8207142
1.056125 -38.322708 1.8287916
1.7331945 -37.681099 1.8950417
1.8009287 -37.579311 1.8693024
1.8657084 -37.489082 1.894875
1.8678335 -37.01292 1.8537499
2.1542268 -36.625675 1.8771827
-1.5540001 -41.970421 2.1055834
0.027104167 -40.341541 2.1790626
-0.041500002 -40.232498 2.1045001
0.1234394 -40.120548 2.163131
0.92508334 -38.372334 2.0286875
1.8013612 -37.787945 2.0887501
1.6996298 -37.715096 2.1193521
1.8506091 -37.604122 2.1010451
1.9331112 -37.408298 2.1138217
-0.036444444 -40.210903 2.3900001
0.053040143 -40.08884 2.3495414
1.489 -37.99025 2.38325
1.5795943 -37.871201 2.3986442
1.7090937 -37.697227 2.3961143
1.8226501 -37.562592 2.4029024
1.9321091 -37.361759 2.3607192
2.0295 -37.364502 2.4819999
2.1943333 -36.991367 2.3646333
-0.31648147 -40.645706 2.6434267
-0.19131745 -40.618 2.6484604
-0.13292044 -40.39957 2.6362312
0.019900002 -40.299202 2.6117001
-0.045833334 -40.209457 2.6273584
0.1112262 -40.099834 2.6342952
1.4530897 -38.04306 2.6613398
1.5850834 -38.101002 2.5564167
1.4893334 -37.993332 2.6526668
1.6279931 -37.865967 2.6280141
1.7780001 -37.752602 2.5505998
1.6965208 -37.690613 2.6218958
1.8352116 -37.583233 2.6024332
1.9287455 -37.376492 2.6227269
2.0764225 -37.340881 2.5308888
2.103205 -37.153858 2.615633
-0.35471585 -40.643925 2.8756905
-0.17256434 -40.381813 2.8724813
-0.044298895 -40.194893 2.8693442
0.028755955 -40.088921 2.8993275
1.4328001 -38.055511 2.8808331
1.5885 -38.0695 2.9875
1.4830636 -37.979794 2.841032
1.5986018 -37.879738 2.895889
1.6925489 -37.679668 2.8497176
1.8203436 -37.601284 2.9169838
1.918056 -37.373642 2.8595636
2.0469167 -37.340725 2.9640834
-0.285 -40.780998 3.0840001
-0.33685735 -40.627903 3.1264687
-0.19013333 -40.600731 3.0892334
-0.13722116 -40.397789 3.0994864
0.020444445 -40.286446 3.0855
-0.047722857 -40.185524 3.1152015
0.099073812 -40.088814 3.0938666
1.4274 -38.033001 3.1141
1.574 -38.028999 3.0255001
1.4782374 -37.964901 3.1098125
1.5942268 -37.85043 3.1161528
1.696587 -37.670719 3.1492927
1.8065208 -37.579147 3.0607293
1.9085021 -37.365635 3.1189759
2.0285001 -37.333 3.0050001
2.075474 -37.12265 3.1200743
-0.35620779 -40.619461 3.3701537
-0.15526262 -40.352718 3.3940263
-0.06075 -40.184906 3.3479583
0.052106667 -40.083748 3.4036465
0.14774749 -39.89492 3.3749452
1.4306031 -38.036549 3.3620479
1.5573334 -38.038666 3.4543333
1.4789842 -37.955978 3.3666985
1.6247112 -37.849594 3.4279435
1.6756965 -37.663063 3.3789465
1.8070831 -37.587479 3.4100797
1.8984495 -37.377331 3.3801541
2.0450625 -37.301674 3.415175
2.1043563 -37.118347 3.3943806
-0.35935119 -40.624077 3.6404164
-0.19666666 -40.566467 3.5409002
-0.25534999 -40.467384 3.6552584
-0.13657005 -40.349762 3.6122088
0.0020000001 -40.32 3.5339999
-0.051765151 -40.173397 3.6384511
0.07925456 -40.102859 3.5812786
0.15542045 -39.88715 3.6262481
1.42065 -38.026268 3.6441333
1.4681519 -37.958874 3.6500704
1.5481611 -37.846123 3.6149652
1.6767739 -37.657623 3.6327605
1.7522 -37.551304 3.6447999
1.8665638 -37.380714 3.63132
1.972225 -37.220524 3.6492248
2.0630653 -37.095333 3.6222153
-0.36888126 -40.629951 3.8826523
-0.20899999 -40.560753 3.9695001
-0.28066668 -40.463417 3.8833332
-0.15151516 -40.35574 3.8896589
-0.062933333 -40.156258 3.8637886
0.080361232 -40.100422 3.9451206
1.4446667 -38.029831 3.9202223
1.4709816 -37.935146 3.9187777
1.6083692 -37.830559 3.8813515
1.706174 -37.634087 3.8558598
1.8066111 -37.601761 3.8790276
1.8886811 -37.383289 3.8624027
2.0446072 -37.29491 3.8689106
1.984375 -37.186375 3.8775001
-0.36274934 -40.62286 4.1084118
-0.1805 -40.525002 4.0074997
-0.28936189 -40.471016 4.1278095
-0.17098749 -40.342247 4.1138878
-0.065220237 -40.164524 4.1323576
0.0261 -40.094948 4.0928283
0.13002698 -39.874153 4.1163535
1.4596399 -37.914848 4.1448808
1.5491823 -37.802567 4.1443524
1.6752263 -37.615051 4.1361804
1.8175945 -37.414772 4.1467948
1.9561338 -37.206829 4.1502995
-0.20605001 -40.5387 4.4393501
-0.28238001 -40.456989 4.3832464
-0.14950298 -40.351433 4.4325867
-0.059864588 -40.152233 4.3921199
0.057351023 -40.094318 4.4090757
0.15057236 -39.881607 4.3824677
1.4474595 -37.935158 4.3860641
1.5942668 -37.848469 4.3698001
1.6831212 -37.625725 4.3968725
1.8150059 -37.607136 4.3369699
1.8789361 -37.373203 4.3811703
2.0344763 -37.281498 4.3108811
1.9565973 -37.19936 4.4230137
-0.28818333 -40.454014 4.6467862
-0.19575834 -40.321964 4.6144614
-0.065428577 -40.131477 4.6177149
0.0089166677 -40.034836 4.6023331
0.12566018 -39.853046 4.6495228
1.433159 -37.921436 4.6583295
1.5251945 -37.827862 4.644361
1.6448014 -37.625629 4.6404195
1.8393288 -37.360157 4.6398029
1.9456528 -37.199615 4.6024442
-0.35195714 -40.6049 4.9013143
-0.22555554 -40.542225 4.8955002
-0.30375555 -40.45322 4.868978
-0.16943616 -40.358902 4.8876996
-0.085517079 -40.161446 4.8458757
0.042714287 -40.095345 4.8644762
0.1262065 -39.895969 4.872479
1.4398731 -37.911251 4.9133182
1.588661 -37.819107 4.8346157
1.6756219 -37.631462 4.872417
1.8119334 -37.573135 4.7940888
1.8553699 -37.383766 4.8515153
2.0179999 -37.306999 4.7690001
1.9436833 -37.182999 4.8947396
-0.40941045 -40.576725 5.1344905
-0.2861889 -40.402428 5.1407146
-0.212075 -40.299801 5.126153
-0.092359416 -40.131454 5.1560168
0.0057499995 -40.006001 5.0462499
0.10074044 -39.852047 5.1370721
1.4271926 -37.915638 5.0944591
1.5738167 -37.822777 5.1740742
1.6474885 -37.632267 5.1235151
1.8123751 -37.550499 5.2406249
1.7411251 -37.452374 5.138
1.8507513 -37.366955 5.140317
1.9424417 -37.186691 5.0979586
-0.40341634 -40.596119 5.3939919
-0.24833333 -40.546669 5.354167
-0.29472914 -40.420712 5.3663125
-0.15697499 -40.338051 5.3732915
-0.088306129 -40.133999 5.4185109
0.064791664 -40.078545 5.3240833
0.13995865 -39.865917 5.3589883
1.472 -38.016998 5.2859998
1.424999 -37.91185 5.3592129
1.5531876 -37.818794 5.2683539
1.6115818 -37.640598 5.3652601
1.7399572 -37.448929 5.3577905
1.8288093 -37.321121 5.3568068
1.9501675 -37.153172 5.348403
-0.38542616 -40.605408 5.6556396
-0.28498667 -40.401997 5.5797396
-0.21165001 -40.363384 5.6658669
-0.10912967 -40.140209 5.6227722
0.122 -40.019001 5.7490001
-0.02 -39.996334 5.6563334
0.12426709 -39.874634 5.642499
0.273 -39.755749 5.6634998
0.22629583 -39.674591 5.653121
1.3771666 -38.015831 5.6434374
1.4433799 -37.893433 5.6384754
1.5567001 -37.846344 5.5968795
1.628324 -37.643398 5.6484389
1.7865 -37.537388 5.6960559
1.7209001 -37.462166 5.5769334
1.8544792 -37.355232 5.6312609
1.9547137 -37.144573 5.6200104
-0.51375002 -40.707584 5.9324164
-0.424725 -40.600834 5.8860149
-0.29541889 -40.398857 5.8643742
-0.18852143 -40.293617 5.8237238
-0.089299612 -40.151699 5.8715758
0.030666668 -40.108467 5.7907
-0.018999999 -39.979668 5.9150004
0.07841666 -39.840919 5.8926778
1.3226875 -38.068035 5.9065208
1.4291919 -37.898865 5.8656659
1.5195 -37.851501 5.9689999
1.5862622 -37.647873 5.8601456
1.7042308 -37.478973 5.8371859
1.7992184 -37.353188 5.8696227
1.925284 -37.152229 5.8830018
2.0733056 -37.048302 5.9179831
-0.62192678 -40.879814 6.1806145
-0.52047503 -40.690666 6.1200666
-0.42126563 -40.587784 6.1047764
-0.30642682 -40.418438 6.1227098
-0.2177854 -40.309406 6.1602125
-0.099259026 -40.147121 6.1174774
0.038388889 -40.067444 6.2242227
-0.018750001 -39.96925 6.099
0.11233409 -39.85247 6.1226907
0.19029319 -39.686829 6.1629119
0.27520001 -39.577332 6.0883336
1.2140363 -38.197289 6.1336637
1.3077055 -38.076519 6.1370778
1.4281695 -37.876255 6.1268468
1.5494092 -37.794197 6.0434093
1.613628 -37.659725 6.1221085
1.7921112 -37.533333 6.137722
1.7020048 -37.435204 6.1765661
1.8469175 -37.357422 6.1309576
1.9359732 -37.151028 6.1001139
2.0215833 -37.07439 6.0771394
2.1561902 -36.845497 6.1378222
-0.63883775 -40.880623 6.3815918
-0.51957691 -40.700409 6.3968272
-0.4429774 -40.607021 6.3575263
-0.31564692 -40.386692 6.3813853
-0.19744642 -40.275391 6.3571305
-0.11534286 -40.09272 6.3151999
-0.071158782 -39.945629 6.3844509
0.045287464 -39.896458 6.3525658
0.17792322 -39.678547 6.398922
0.31219164 -39.553707 6.3674378
0.40478987 -39.346001 6.3977709
1.0870157 -38.363407 6.4057226
1.2049206 -38.188572 6.3780084
1.3092767 -38.041466 6.3724799
1.430805 -37.874443 6.3904586
1.5973939 -37.63826 6.3627477
1.7019159 -37.341892 6.3864622
1.7682999 -37.270065 6.3500338
1.9169377 -37.175564 6.3584337
2.0429876 -37.011635 6.3765998
2.1169376 -36.888512 6.3811579
2.2242179 -36.70269 6.3664765
-0.64544237 -40.884789 6.6375608
-0.5374167 -40.695023 6.6723542
-0.42411676 -40.573765 6.6057034
-0.3051191 -40.4067 6.6438451
-0.1784479 -40.298248 6.6439614
-0.075250015 -40.109947 6.6500578
0.028633334 -40.067768 6.6901994
-0.057791669 -39.962627 6.5587502
0.10753114 -39.862869 6.6484089
0.17544572 -39.686993 6.6341386
0.27264288 -39.524216 6.6037502
0.36628023 -39.381454 6.636024
0.51133335 -39.267914 6.6804171
1.084416 -38.343937 6.6383677
1.2143667 -38.192909 6.6165309
1.2963905 -38.031658 6.6267867
1.4155089 -37.86301 6.617743
1.56258 -37.775093 6.6217704
1.644842 -37.62859 6.6039414
1.76775 -37.556252 6.5747495
1.7018983 -37.4627 6.658268
1.8402628 -37.371391 6.6080132
1.9090483 -37.181099 6.6340618
2.0289428 -37.11364 6.6113815
2.1136153 -36.844017 6.647418
2.2126667 -36.721832 6.6321664
2.2958097 -36.627464 6.6188073
-0.52999997 -40.684834 6.8816671
-0.47142392 -40.595863 6.8730097
-0.30560437 -40.384689 6.8923144
-0.24716668 -40.256336 6.8438334
-0.15410173 -40.121433 6.8647914
-0.032110713 -39.943203 6.8688273
0.062740959 -39.802082 6.8734503
0.19055413 -39.671227 6.8869114
0.25524026 -39.541729 6.8033504
0.36642939 -39.402996 6.8844991
1.189265 -38.181591 6.880198
1.2985001 -38.069633 6.9208126
1.4076556 -37.856266 6.8576283
1.5304286 -37.752861 6.8498569
1.5933784 -37.600262 6.8685408
1.6985542 -37.437462 6.8871336
1.8016996 -37.309368 6.8915634
1.9027102 -37.142078 6.8684096
2.026 -37.051071 6.8967147
2.1124966 -36.850273 6.880394
2.2251348 -36.694752 6.8646584
-0.5501557 -40.708504 7.1497326
-0.41811579 -40.621262 7.1436615
-0.3005361 -40.423054 7.1079803
-0.19842263 -40.304653 7.1334496
-0.1076075 -40.131565 7.1328011
0.034600001 -40.045204 7.1362
-0.039571427 -39.943283 7.0265718
0.1089824 -39.854118 7.1423216
0.19936113 -39.673138 7.0845699
0.3149375 -39.581791 7.1565971
0.37590209 -39.384777 7.0893254
1.1887311 -38.161156 7.1479068
1.3271711 -38.031593 7.1308146
1.411836 -37.932659 7.1540961
1.5574734 -37.811954 7.0700808
1.6515919 -37.618282 7.1319594
1.8274783 -37.363522 7.1037745
1.9540584 -37.170551 7.1066666
2.0519135 -37.057274 7.092927
2.1548104 -36.868816 7.1000504
2.2340717 -36.632217 7.1058578
-0.56519526 -40.675701 7.4000502
-0.4304921 -40.571827 7.3675623
-0.34259862 -40.374401 7.4109254
-0.22174074 -40.289425 7.2905374
-0.259 -40.162716 7.4637151
-0.13809578 -40.111961 7.3769827
-0.050803706 -39.911495 7.4098964
0.053877778 -39.867176 7.3433337
0.15617354 -39.647705 7.3895941
0.28873217 -39.539295 7.3032322
0.21000001 -39.456753 7.4581876
0.35681069 -39.358444 7.3750706
0.43567237 -39.166737 7.3949118
0.55449998 -39.049625 7.3928747
0.93060374 -38.400043 7.3832431
1.0856124 -38.319057 7.334795
1.1399965 -38.13982 7.399735
1.2966666 -38.03772 7.3276396
1.2056875 -37.960499 7.4538126
1.3656696 -37.856392 7.3536711
1.4292922 -37.646187 7.4305482
1.5688469 -37.607883 7.325017
1.4475 -37.389751 7.49575
1.6452255 -37.383602 7.3892784
1.7673335 -37.358025 7.2875209
1.682695 -37.169106 7.4485536
1.8682246 -37.130684 7.3345776
1.71725 -36.961498 7.4917498
1.9024446 -36.89349 7.4280567
2.0755422 -36.848053 7.3119655
1.9283279 -36.65675 7.4798832
2.1455896 -36.638073 7.3668728
2.3037915 -36.56575 7.2619162
2.3477564 -36.347694 7.3422084
-0.45368791 -40.333961 7.5803633
-0.54570001 -40.241604 7.6568003
-0.35970062 -40.111713 7.6036835
-0.29801998 -39.910881 7.6493087
-0.17688419 -39.838757 7.6014171
-0.10225399 -39.646854 7.6335564
0.079708338 -39.575748 7.54075
-0.0125 -39.474503 7.619
0.119055 -39.368523 7.594821
0.28400001 -39.2575 7.5497499
0.18771429 -39.181034 7.6424232
0.84122086 -38.329277 7.5785599
1.0398 -38.092098 7.5468268
1.3273097 -37.599339 7.5892544
1.5705 -37.338001 7.5019999
