# .PCD v0.7 - Point Cloud Data file format
VERSION 0.7
FIELDS x y z
SIZE 4 4 4
TYPE F F F
COUNT 1 1 1
WIDTH 68
HEIGHT 1
VIEWPOINT -18.2321 96.2205 -1.35163 -0.354149 -0.00701479 0.0211809 0.934923
POINTS 68
DATA ascii
14.307629 -22.545528 18.748951
14.200351 -22.402397 18.739038
14.363548 -22.341068 18.736162
14.616578 -22.366623 18.743532
14.916652 -22.317728 18.743662
15.099916 -22.346752 18.746332
15.349621 -22.325829 18.746536
15.696811 -22.301867 18.7479
15.777385 -22.306692 18.747847
13.974001 -22.048 18.717335
14.126155 -22.1444 18.72666
14.370176 -22.093479 18.725479
14.649716 -22.13518 18.731964
14.86658 -22.134949 18.732161
15.136296 -22.138474 18.735361
15.384193 -22.14995 18.737911
15.614675 -22.154608 18.74057
13.892148 -21.861858 18.694695
14.148519 -21.897013 18.715174
14.399058 -21.853636 18.716288
14.629274 -21.909994 18.717987
14.865695 -21.867935 18.718554
15.149263 -21.879324 18.721268
15.404312 -21.871861 18.723993
15.553182 -21.938629 18.728167
14.158772 -21.673239 18.725704
14.377162 -21.598383 18.699413
14.625786 -21.619244 18.703194
14.869526 -21.610909 18.704201
15.135392 -21.632704 18.708849
14.387492 -21.386292 18.710695
14.636333 -21.380362 18.689535
14.880881 -21.391655 18.694923
15.119148 -21.397369 18.697084
14.652511 -21.161856 18.697552
14.847867 -21.10541 18.678375
15.026401 -21.1654 18.683401
14.830375 -20.978062 18.688145
15.251779 -23.252333 18.795111
14.86425 -23.150759 18.785358
15.134586 -23.134699 18.787977
15.362851 -23.108276 18.789759
14.635631 -22.839054 18.767435
14.866546 -22.887041 18.771933
15.118159 -22.884645 18.774611
15.364848 -22.85288 18.775913
15.64116 -22.870401 18.778057
14.382388 -22.636164 18.754166
14.627925 -22.592703 18.755613
14.88424 -22.631134 18.760912
15.13058 -22.617838 18.761513
15.365102 -22.633924 18.762239
15.63307 -22.636229 18.763697
14.847954 -22.451315 18.751879
15.150646 -22.449457 18.751505
15.401577 -22.452618 18.754578
15.580838 -22.417099 18.752237
15.841455 -22.429905 18.754978
13.91262 -21.862595 18.803263
14.017 -21.83 18.813
13.931 -21.694 18.75
14.11587 -21.665115 18.796074
14.295501 -21.519333 18.796333
14.370234 -21.419546 18.773457
14.539333 -21.30175 18.782751
14.694516 -21.163168 18.771524
14.875549 -21.02145 18.765751
14.881786 -20.978571 18.757359
