# .PCD v0.7 - Point Cloud Data file format
VERSION 0.7
FIELDS x y z
SIZE 4 4 4
TYPE F F F
COUNT 1 1 1
WIDTH 170
HEIGHT 1
VIEWPOINT -18.2321 96.2205 -1.35163 -0.354149 -0.00701479 0.0211809 0.934923
POINTS 170
DATA ascii
-27.9083 66.127846 -2.3582001
-27.640543 66.137291 -2.3878613
-27.362574 66.151077 -2.3582869
-27.111099 66.160255 -2.3683498
-26.870687 66.172623 -2.3416252
-28.11393 66.129417 -2.1358335
-27.891052 66.139404 -2.1175499
-27.633009 66.148933 -2.135741
-27.357615 66.161942 -2.1110666
-27.08865 66.173477 -2.1217201
-26.888 66.180122 -2.1384583
-26.648876 66.189156 -2.1468093
-26.409027 66.202637 -2.1106145
-26.144302 66.215958 -2.0777836
-25.813999 66.250999 -2.0769999
-25.679333 66.262833 -2.0436668
-28.155914 66.178253 -1.8733667
-27.907021 66.157516 -1.9000626
-27.656282 66.183037 -1.8797814
-27.363043 66.177139 -1.9115416
-27.109306 66.191002 -1.9099168
-26.871197 66.210899 -1.8952708
-26.643667 66.213295 -1.9289374
-26.364958 66.220612 -1.9089028
-26.1015 66.23056 -1.89425
-25.94475 66.245003 -1.944
-27.879663 66.261665 -1.7886667
-27.574001 66.2715 -1.78275
-27.36167 66.278419 -1.7839721
-27.091999 66.288254 -1.7809999
-26.938999 66.278 -1.79875
-26.654886 66.312996 -1.7860001
-26.38925 66.317001 -1.8034999
-26.144333 66.315666 -1.8086667
-25.853815 66.297668 -1.8276333
-25.662251 66.289841 -1.9064333
-25.394001 66.262001 -1.937
-28.141993 66.292778 -1.626111
-27.872793 66.304565 -1.6265104
-27.617085 66.305367 -1.652131
-27.344469 66.328049 -1.6195105
-27.111168 66.335373 -1.6237499
-26.89525 66.332207 -1.6426667
-26.630426 66.350784 -1.6245105
-26.363277 66.360458 -1.6389908
-26.100792 66.36834 -1.6413332
-25.879959 66.385002 -1.6229998
-25.612593 66.397324 -1.6429353
-25.380035 66.412109 -1.622
-25.112125 66.429504 -1.6017499
-28.123022 66.310432 -1.3700832
-27.858709 66.320335 -1.3860416
-27.588751 66.331947 -1.36585
-27.340466 66.341179 -1.3697857
-27.117001 66.349937 -1.3824999
-26.916401 66.358803 -1.3685501
-26.639206 66.369667 -1.3862084
-26.371655 66.381676 -1.3704404
-26.094069 66.39341 -1.3607917
-25.897366 66.401749 -1.3675106
-25.637716 66.413902 -1.367311
-25.356167 66.426796 -1.3660185
-25.114874 66.437248 -1.3663334
-28.14044 66.321388 -1.1411667
-27.863693 66.332886 -1.1351666
-27.614649 66.343399 -1.1226001
-27.360929 66.353394 -1.1376785
-27.130163 66.363243 -1.1185476
-26.844749 66.373375 -1.1351875
-26.589417 66.384125 -1.1312084
-26.337502 66.396225 -1.1134167
-26.13652 66.401917 -1.1421459
-25.904064 66.413124 -1.1085
-25.643898 66.425819 -1.1094832
-25.351326 66.438988 -1.1156083
-25.121025 66.450882 -1.1089251
-28.093622 66.336662 -0.85445833
-27.8505 66.346504 -0.88545841
-27.609062 66.355942 -0.8935625
-27.384668 66.36554 -0.86730003
-27.135706 66.373878 -0.88312501
-26.877644 66.384529 -0.8775714
-26.591238 66.397011 -0.86844444
-26.383097 66.404442 -0.88417858
-26.140484 66.414352 -0.88398343
-25.869625 66.42778 -0.84496874
-25.625553 66.436195 -0.90963
-25.37195 66.449051 -0.88015002
-25.160969 66.459198 -0.86985624
-28.098749 66.349564 -0.60331249
-27.861128 66.356705 -0.65264785
-27.63275 66.366463 -0.62878573
-27.410624 66.375237 -0.62212336
-27.14028 66.384804 -0.6331389
-26.859713 66.397453 -0.61918938
-26.598417 66.407623 -0.63233328
-26.377512 66.418419 -0.62073004
-26.150167 66.42598 -0.64455557
-25.861 66.44046 -0.60762501
-25.598793 66.449791 -0.63995832
-25.396149 66.458054 -0.6383
-25.135284 66.471504 -0.61950004
-24.906311 66.483078 -0.61590999
-28.11525 66.3629 -0.37260002
-27.87475 66.371651 -0.3782917
-27.640299 66.379364 -0.38185
-27.404402 66.389061 -0.34908333
-27.130352 66.397545 -0.36352777
-26.871334 66.407585 -0.40572619
-26.603561 66.420685 -0.3828125
-26.393803 66.427475 -0.38898331
-26.12282 66.436684 -0.37703571
-25.87804 66.448669 -0.37108126
-25.600399 66.457802 -0.38919997
-25.40196 66.470665 -0.37711999
-25.145157 66.48336 -0.36597919
-24.911667 66.492477 -0.38331249
-24.844999 66.500999 -0.25799999
-28.095551 66.368149 -0.1302
-27.87945 66.378601 -0.13185
-27.650831 66.385406 -0.1402685
-27.393866 66.395737 -0.084616676
-27.139055 66.407257 -0.13451852
-26.848808 66.418556 -0.14858335
-26.606249 66.427917 -0.13325
-26.39546 66.434372 -0.13358332
-26.149157 66.441437 -0.1345
-25.851236 66.456223 -0.12323809
-25.605337 66.467209 -0.13070832
-25.382969 66.480896 -0.12562001
-25.123537 66.493065 -0.12410714
-24.924889 66.498055 -0.21155556
-25.025 66.50267 -0.023333333
-24.905479 66.507278 -0.0824375
-28.109062 66.374496 0.1005625
-27.903351 66.381798 0.12215
-27.628216 66.393822 0.11125
-27.40715 66.402168 0.098966666
-27.120901 66.413651 0.12354998
-26.848013 66.423195 0.12155954
-26.608688 66.434311 0.1163125
-26.396687 66.437317 0.11587499
-26.122534 66.448608 0.12334524
-25.880293 66.462601 0.12936458
-25.610188 66.479813 0.11787499
-25.357388 66.49295 0.1388
-25.2015 66.496246 0.027999999
-25.339666 66.501335 0.24933335
-25.13287 66.505241 0.15085714
-24.901335 66.51358 0.11025001
-28.129475 66.379333 0.34627381
-27.844435 66.333778 0.39387038
-27.620062 66.338402 0.37532502
-27.354752 66.347435 0.38145834
-27.108946 66.36367 0.40375006
-26.878807 66.389191 0.34974071
-26.617529 66.39045 0.38049999
-26.375357 66.397209 0.37767857
-26.138857 66.418037 0.35121426
-25.854918 66.426079 0.36229166
-25.63295 66.42247 0.40669999
-25.384457 66.4356 0.4148854
-25.136063 66.430878 0.41639584
-24.900541 66.437996 0.42554167
-25.32 66.5 0.30199999
-25.150917 66.511421 0.28883335
-24.8915 66.521873 0.25937501
-28.117306 66.391922 0.65190738
-27.880772 66.327324 0.63050002
-25.202 66.458 0.50099999
