# .PCD v0.7 - Point Cloud Data file format
VERSION 0.7
FIELDS x y z
SIZE 4 4 4
TYPE F F F
COUNT 1 1 1
WIDTH 95
HEIGHT 1
VIEWPOINT -18.2321 96.2205 -1.35163 -0.354149 -0.00701479 0.0211809 0.934923
POINTS 95
DATA ascii
-61.363998 -21.450001 -1.27
-60.959747 -20.891251 -1.26825
-60.737999 -20.754 -1.2819999
-60.811501 -20.63825 -1.25675
-60.669331 -20.398666 -1.261
-60.5355 -20.201752 -1.263
-60.426003 -20.060001 -1.276
-60.3255 -19.852667 -1.2675
-60.305 -19.669001 -1.256
-60.164749 -19.64525 -1.2702501
-60.034 -19.466 -1.2725
-59.856998 -19.374832 -1.2843333
-60.099998 -19.1595 -1.276
-59.825333 -19.111334 -1.2820001
-60.120998 -18.900126 -1.25225
-59.756001 -18.937 -1.288
-59.793999 -18.58 -1.288
-59.596001 -18.585999 -1.2920001
-59.646 -18.441 -1.295
-59.595749 -18.186001 -1.276
-59.4785 -18.048 -1.2869999
-59.401669 -17.909056 -1.2760555
-59.3255 -17.731998 -1.2539999
-59.128128 -17.643875 -1.2869999
-59.098877 -17.392 -1.261875
-58.595001 -17.354 -1.298
-58.334999 -17.2775 -1.301
-58.883873 -17.135124 -1.2772501
-58.598 -17.222 -1.2970001
-58.320499 -17.1415 -1.3025
-58.144001 -17.004 -1.306
-59.292999 -16.799999 -1.252
-59.091 -16.83 -1.2543334
-58.836834 -16.905167 -1.2646667
-58.656502 -16.806 -1.291
-58.118 -16.948999 -1.308
-59.379002 -16.596001 -1.256
-59.241001 -16.514999 -1.26
-58.573887 -16.624334 -1.2804445
-58.061001 -16.538 -1.311
-59.337002 -16.499001 -1.2589999
-59.183502 -16.37525 -1.266
-58.5755 -16.441 -1.2715
-58.3377 -16.355999 -1.2973001
-58.106998 -16.464001 -1.312
-62.121998 -21.869667 -1.2030001
-62.18417 -21.687002 -1.1123333
-61.938 -21.552 -1.181
-61.650749 -21.610252 -1.19625
-61.4645 -21.550667 -1.2153335
-62.119495 -21.389502 -1.0860001
-61.883999 -21.412498 -1.1865
-61.369751 -21.414749 -1.233375
-61.63625 -21.146084 -1.16475
-61.169666 -21.133333 -1.2421666
-61.445045 -20.86768 -1.15072
-61.0345 -20.929001 -1.234
-60.928001 -20.774 -1.237
-61.365704 -20.632648 -1.13535
-61.124001 -20.504999 -1.22
-60.895168 -20.584583 -1.2286667
-61.374496 -20.374001 -1.1055
-61.157749 -20.357626 -1.1497916
-60.890335 -20.379 -1.225
-61.085876 -20.171249 -1.1448749
-60.902 -20.12125 -1.2067499
-60.690002 -20.107666 -1.237
-60.813934 -19.893167 -1.1802332
-60.615898 -19.900465 -1.1689
-60.624146 -19.632351 -1.2098
-60.530994 -19.412001 -1.1846668
-60.459835 -19.390249 -1.1981667
-60.342503 -19.187929 -1.1943572
-60.225624 -19.050499 -1.212375
-60.349998 -18.7745 -1.1715
-60.112686 -18.835125 -1.194875
-60.289001 -18.639 -1.177
-59.90675 -18.583418 -1.22425
-59.703999 -18.278 -1.204
-59.637169 -18.131876 -1.2152916
-59.923 -17.794001 -1.2079999
-59.640129 -17.887501 -1.211375
-59.421501 -17.81675 -1.22375
-60.057999 -17.66275 -1.2095001
-59.944 -17.530001 -1.217
-59.262001 -17.643999 -1.248
-59.22567 -17.571667 -1.2486668
-59.906998 -17.364334 -1.2216667
-59.682999 -17.3395 -1.225
-59.429001 -17.466 -1.228
-59.105 -17.326 -1.237
-59.018501 -17.2355 -1.2415
-58.9505 -17.035 -1.248
-59.536247 -16.789499 -1.2485
-62.208496 -21.724298 -0.82190001
