# .PCD v0.7 - Point Cloud Data file format
VERSION 0.7
FIELDS x y z
SIZE 4 4 4
TYPE F F F
COUNT 1 1 1
WIDTH 78
HEIGHT 1
VIEWPOINT -18.2321 96.2205 -1.35163 -0.354149 -0.00701479 0.0211809 0.934923
POINTS 78
DATA ascii
-55.110359 1.1365238 23.347214
-54.917458 1.1605418 23.346041
-54.700241 1.1142917 23.422564
-56.865334 1.30375 23.32375
-56.62756 1.3474445 23.323004
-56.334503 1.3451667 23.326111
-56.129753 1.3038334 23.330624
-55.893665 1.3217083 23.331751
-55.588665 1.3116666 23.334999
-55.393127 1.3034167 23.336166
-55.153999 1.3206251 23.337542
-54.855389 1.3171111 23.34339
-54.577438 1.3115417 23.420481
-56.861 1.6508125 23.306688
-56.602863 1.6580278 23.308779
-56.376221 1.6441666 23.31089
-56.097881 1.6425238 23.31481
-55.862289 1.6060834 23.317875
-55.638763 1.6546191 23.317547
-55.398716 1.6548097 23.320047
-55.109859 1.6308889 23.324249
-54.86124 1.6257857 23.331213
-54.676498 1.658 23.339001
-54.358253 1.6225075 23.421515
-54.246998 1.7464287 23.458
-56.897354 1.8610001 23.295685
-56.592701 1.8960667 23.298866
-56.381744 1.8725554 23.300947
-56.145897 1.8761042 23.30373
-55.870655 1.8715 23.306517
-55.625626 1.8930835 23.307709
-55.363331 1.8703055 23.310778
-55.132633 1.8778056 23.311834
-54.86525 1.8520833 23.31778
-54.643002 1.8823808 23.320047
-54.372749 1.8664999 23.355
-54.169338 1.9045808 23.41334
-56.811001 2.0495 23.285999
-56.60033 2.0610001 23.294333
-56.39267 2.0525002 23.293167
-56.137165 2.0489445 23.295053
-55.865601 2.1328001 23.2938
-55.5975 2.0410001 23.300251
-55.382996 2.0256665 23.302168
-55.091663 2.0966666 23.302999
-54.887878 2.091625 23.307499
-54.619801 2.1598001 23.308435
-54.399612 2.1548889 23.311388
-54.129166 2.0785832 23.375626
-53.923 2.2342501 23.43
-56.616268 2.3453333 23.276937
-56.346714 2.3571906 23.278906
-56.117737 2.3665237 23.281118
-55.855457 2.3802142 23.283691
-55.616886 2.3520555 23.286888
-55.368439 2.367667 23.288252
-55.122223 2.3517778 23.290527
-54.874451 2.3394048 23.295073
-54.649776 2.3744168 23.297167
-54.359779 2.3939445 23.301334
-54.159809 2.4176943 23.302942
-53.857285 2.3767211 23.400633
-55.915272 2.6245 23.270634
-55.633331 2.6327291 23.27346
-55.345165 2.6493332 23.274834
-55.113888 2.602639 23.27928
-54.906624 2.6439762 23.280121
-54.645527 2.635524 23.283644
-54.384228 2.6359167 23.288292
-54.127712 2.6302383 23.293406
-55.444332 2.7516668 23.269669
-54.614655 1.1343223 23.536688
-54.540287 1.2501429 23.538288
-54.47625 1.34225 23.536001
-54.299915 1.5981666 23.533417
-54.126362 1.85355 23.527985
-53.918831 2.1585002 23.5165
-54.119999 2.448 23.712
