# .PCD v0.7 - Point Cloud Data file format
VERSION 0.7
FIELDS x y z
SIZE 4 4 4
TYPE F F F
COUNT 1 1 1
WIDTH 115
HEIGHT 1
VIEWPOINT -18.2321 96.2205 -1.35163 -0.354149 -0.00701479 0.0211809 0.934923
POINTS 115
DATA ascii
-45.045387 13.626698 -1.8635198
-44.83514 14.117732 -1.8607793
-44.755524 14.251572 -1.8514105
-45.250732 13.049819 -1.5531818
-45.226288 13.168513 -1.6145334
-45.159637 13.383621 -1.6560715
-45.08152 13.567994 -1.6379354
-45.017624 13.776624 -1.6246221
-44.973145 13.898185 -1.6493101
-44.861065 14.115905 -1.6155473
-44.796726 14.355659 -1.627231
-44.707523 14.545491 -1.6266553
-45.256363 13.047139 -1.3552777
-45.224094 13.200027 -1.3614649
-45.159679 13.38885 -1.3610611
-45.075916 13.59924 -1.3557146
-45.012695 13.805944 -1.3776389
-44.9795 13.90168 -1.3979862
-44.858913 14.122986 -1.3801768
-44.801109 14.368876 -1.4013501
-44.682838 14.573415 -1.368102
-45.323624 12.860856 -1.1388012
-45.259789 13.050264 -1.1024711
-45.183155 13.184183 -1.1340969
-45.150246 13.364728 -1.138639
-45.07597 13.607297 -1.1213115
-45.022251 13.791986 -1.0944791
-44.975246 13.886336 -1.1577809
-44.858986 14.14282 -1.1303569
-44.792507 14.364614 -1.1426529
-44.743275 14.451364 -1.2388182
-44.750443 14.528444 -1.1536669
-44.649624 14.581158 -1.1292064
-45.267975 13.049422 -0.85466665
-45.187534 13.179456 -0.86486661
-45.174759 13.343957 -0.87762284
-45.094574 13.578805 -0.86772329
-45.024727 13.809692 -0.86927778
-44.982971 13.927278 -0.87755555
-44.871025 14.133262 -0.86642194
-44.805153 14.400888 -0.91017783
-44.759567 14.531584 -0.89942217
-44.670544 14.59641 -0.86149997
-45.271446 13.050476 -0.60368335
-45.233288 13.179634 -0.58046669
-45.193966 13.33803 -0.63073862
-45.086266 13.600824 -0.62265307
-45.029675 13.791445 -0.6386444
-44.980175 13.905481 -0.62676692
-44.872574 14.140244 -0.61888176
-44.79921 14.374442 -0.62941122
-44.764 14.53311 -0.7492221
-44.699276 14.579697 -0.60457462
-45.278145 13.048358 -0.4012143
-45.248203 13.137499 -0.39160001
-45.196724 13.359238 -0.37291515
-45.078079 13.645175 -0.38284332
-45.010666 13.84031 -0.41220236
-44.985786 13.898369 -0.37078667
-44.88522 14.131429 -0.35757768
-44.813602 14.389034 -0.37550801
-44.760395 14.565261 -0.36427274
-45.273087 13.07357 -0.11770834
-45.248417 13.147959 -0.19366668
-45.204765 13.355003 -0.1260702
-45.094982 13.608823 -0.14495251
-45.023911 13.858117 -0.12044572
-44.980202 13.934034 -0.11492501
-44.884552 14.150714 -0.10606574
-44.806618 14.421225 -0.1237245
-44.762665 14.573243 -0.1437697
-45.270969 13.091412 0.15320419
-45.220001 13.163046 0.05427273
-45.178326 13.338286 0.11075208
-45.080742 13.61832 0.11282852
-45.016186 13.802062 0.11215238
-44.978458 13.890159 0.12588492
-44.893211 14.133667 0.12210607
-44.809696 14.419778 0.14011882
-44.780087 14.541224 0.15000001
-44.706764 14.633593 0.10588989
-45.275898 13.124318 0.38115874
-45.206963 13.388483 0.36008117
-45.124115 13.600134 0.36773437
-45.038933 13.851176 0.35401404
-44.992168 13.981626 0.3915
-44.907341 14.167368 0.38512528
-44.816143 14.419827 0.4003922
-44.774086 14.567084 0.37475395
-45.277504 13.139429 0.61946028
-45.243549 13.244454 0.74781817
-45.20948 13.401258 0.61346799
-45.115982 13.614948 0.63443398
-45.039967 13.852824 0.62266886
-44.992832 13.982167 0.61400002
-44.921837 14.148243 0.6241647
-44.827202 14.39444 0.61627465
-44.782867 14.555878 0.62926364
-45.279011 13.109963 0.88580102
-45.22213 13.243 0.85162497
-45.187851 13.38438 0.8574304
-45.10487 13.616645 0.87803638
-45.032562 13.847816 0.87542772
-44.98101 13.911264 0.83048058
-44.917694 14.129838 0.8668983
-44.831955 14.35902 0.86068898
-44.786316 14.557567 0.9034667
-45.294071 13.133708 1.1290294
-45.20895 13.422669 1.1465001
-45.120739 13.645789 1.1157327
-45.044392 13.864833 1.1517487
-44.997753 13.958 1.1530833
-44.948586 14.125167 1.1236227
-44.859142 14.35383 1.1085327
-45.008999 14.024 1.291
