# .PCD v0.7 - Point Cloud Data file format
VERSION 0.7
FIELDS x y z
SIZE 4 4 4
TYPE F F F
COUNT 1 1 1
WIDTH 694
HEIGHT 1
VIEWPOINT -18.2321 96.2205 -1.35163 -0.354149 -0.00701479 0.0211809 0.934923
POINTS 694
DATA ascii
-28.575001 21.699001 -2.003
-28.469 21.665001 -2.0009999
-28.571499 21.87925 -2.0050001
-28.394835 21.861832 -2.0048332
-28.161999 21.90975 -2.0032499
-28.59425 22.061749 -2.0025001
-28.422001 22.172001 -2.0055833
-28.225334 22.205334 -2.0106666
-28.378 22.424002 -2.0066667
-34.102997 23.6905 -2.0150001
-33.865002 23.5945 -2.0054998
-34.084999 23.851124 -2.0127499
-32.774002 24.9965 -2.0035
-32.540501 24.927 -2.0040002
-32.356499 24.948 -2.0035
-31.334999 24.974001 -2.0039999
-32.678001 25.145 -2.0058
-32.419998 25.143 -2.01
-32.141998 25.078751 -2.0039999
-31.972 25.120998 -2.0044999
-31.39275 25.13825 -2.0037501
-32.646332 25.336166 -2.0090001
-32.418667 25.468666 -2.0183334
-32.033001 25.385 -2.0095
-31.873777 25.351778 -2.005111
-31.610001 25.486 -2.01
-31.229 25.395 -2.0039999
-32.6506 25.644333 -2.0098667
-32.320999 25.519001 -2.0190001
-31.958 25.656 -2.01
-31.695999 25.590668 -2.0098333
-31.257999 25.654499 -2.0055001
-31.17075 25.61125 -2.0044999
-30.969 25.690001 -2.0050001
-32.552002 25.851 -2.0139999
-32.460335 25.898584 -2.0160832
-32.098499 25.896999 -2.0180001
-31.76425 25.89525 -2.0139999
-31.569 25.781 -2.01
-31.382 25.809999 -2.01
-31.169001 25.867001 -2.0089998
-30.907 25.932999 -2.0103333
-32.397999 26.114584 -2.0143332
-31.955999 26.174 -2.023
-31.314501 26.033501 -2.0135
-32.543503 26.331001 -2.006
-32.330002 26.345749 -2.0222499
-32.10725 26.3895 -2.03175
-31.880001 26.370501 -2.0300002
-32.139 26.595749 -2.0357499
-31.92075 26.650501 -2.0362499
-32.140224 26.955111 -2.0366666
-31.823664 26.880333 -2.0463333
-31.639999 26.927 -2.043
-33.104362 27.124002 -2.02175
-32.864834 27.206667 -2.0411668
-31.870998 27.055752 -2.04775
-31.601501 27.03825 -2.0504999
-30.3395 27.149 -2.0545001
-29.867599 27.120703 -2.0534999
-29.391499 27.138 -2.0524998
-28.795815 27.132313 -2.02825
-28.737999 27.222 -2.0265
-33.061779 27.366835 -2.0091112
-32.916729 27.369501 -2.0346665
-31.87075 27.419125 -2.0517499
-31.362627 27.396 -2.0622501
-30.652 27.33625 -2.053875
-30.3985 27.336 -2.0561666
-30.129831 27.446665 -2.0576665
-29.901501 27.405499 -2.0584998
-29.642 27.287666 -2.0593333
-29.422333 27.403666 -2.0599999
-28.873501 27.415501 -2.0555
-28.489 27.48 -2.0569999
-33.021 27.569 -2.0139999
-32.907475 27.647779 -2.0403888
-32.726002 27.682001 -2.0650001
-31.880833 27.6465 -2.0440001
-31.703001 27.639334 -2.056
-31.4245 27.530499 -2.063
-30.695 27.643 -2.0539999
-30.415888 27.621889 -2.0612223
-30.12225 27.66025 -2.0618749
-29.973999 27.7145 -2.066
-29.710249 27.615499 -2.05725
-29.4245 27.519501 -2.0585001
-28.89975 27.629875 -2.0604999
-28.521 27.666 -2.0569999
-28.424 27.534 -2.0549998
-33.071888 27.869001 -2.0185556
-32.85289 27.87089 -2.0498888
-32.744667 27.948002 -2.0623333
-31.854 27.85775 -2.0479999
-31.575624 27.835751 -2.0636251
-31.426001 27.903444 -2.0694444
-31.184999 27.966 -2.0710001
-30.8575 27.884501 -2.0609999
-30.6285 27.909624 -2.062
-30.3195 27.906 -2.0615001
-29.8445 27.907999 -2.0631666
-29.612 27.816999 -2.0639999
-29.444668 27.968 -2.0680003
-29.106001 27.879999 -2.0710001
-28.921749 27.880501 -2.0687499
-31.658501 28.168499 -2.0609999
-31.418833 28.061666 -2.0728333
-31.081501 28.088501 -2.072
-30.91 28.130501 -2.0664999
-29.905001 28.009001 -2.0669999
-29.430222 28.139221 -2.067111
-29.11075 28.140751 -2.0680001
-28.864447 28.078667 -2.059
-31.627209 28.341751 -2.058125
-31.3883 28.402369 -2.072
-31.154499 28.42375 -2.0745001
-30.945 28.379999 -2.075
-29.3645 28.2665 -2.0669999
-31.382397 28.616901 -2.069
-31.136002 28.642166 -2.0744998
-30.796 29.747999 -2.102
-30.719 29.5905 -2.099
-30.75 29.872 -2.108
-35.486 30.073 -2.1719999
-34.990002 30.204 -2.168
-35.400002 30.43 -2.1789999
-35.160831 30.387335 -2.1745002
-34.904503 30.322001 -2.1694999
-35.275002 30.623001 -2.1805
-35.122498 30.65275 -2.17875
-34.805 30.643999 -2.1760001
-31.89275 30.619751 -2.1191249
-31.636 30.646667 -2.1216667
-31.4445 30.568501 -2.1224999
-35.262001 30.892 -2.1835001
-35.054001 30.777 -2.181
-34.934998 30.801001 -2.1820002
-31.8325 30.847626 -2.115375
-31.594055 30.875444 -2.1285
-31.397001 30.915667 -2.1333332
-34.745998 31.117001 -2.1889999
-31.535999 31.088501 -2.138
-31.3885 31.075001 -2.135
-35.161499 31.397251 -2.1942501
-34.849251 31.37125 -2.1935
-34.592999 31.372665 -2.194
-34.301498 31.394001 -2.1919999
-31.597252 31.366999 -2.1370833
-35.000999 31.607 -2.198
-34.889748 31.606499 -2.1975
-34.684502 31.568001 -2.198
-34.405998 31.643 -2.2
-34.882999 31.925499 -2.2059999
-34.629002 31.848 -2.2059999
-34.445999 31.837 -2.2055001
-31.123001 17.3885 -1.848
-30.842043 17.376667 -1.8538959
-30.630663 17.389349 -1.893631
-31.539 17.663 -1.8609999
-31.374666 17.571665 -1.8566666
-31.1227 17.657534 -1.8461666
-30.839764 17.5861 -1.8498333
-30.583094 17.634583 -1.8809218
-30.480499 17.678501 -1.9205
-29.600168 17.707832 -1.9276667
-29.393 17.615999 -1.921
-29.076965 17.644966 -1.9185333
-31.989 17.886 -1.875
-31.589001 17.896 -1.8609999
-31.455 17.85 -1.855
-31.1565 17.941 -1.8505001
-30.849167 17.950998 -1.847
-30.590525 17.839352 -1.8585999
-30.417332 17.868019 -1.9021075
-30.169897 17.91325 -1.9334376
-29.978001 17.853001 -1.936
-29.615959 17.880125 -1.9292499
-29.409 17.99 -1.931
-29.054668 17.915668 -1.927
-28.887335 17.886667 -1.9256667
-31.826927 18.174852 -1.8339667
-31.584 18.128 -1.87
-31.267 18.033001 -1.855
-31.190001 18.046 -1.854
-30.864502 18.155624 -1.8473749
-30.624916 18.108646 -1.8515208
-30.336813 18.140024 -1.8935112
-30.076714 18.074224 -1.9348222
-29.577499 18.075834 -1.9318333
-29.422251 18.113876 -1.932125
-29.2015 18.139 -1.9317501
-28.852959 18.110043 -1.9281666
-33.13789 18.417999 -1.8806667
-32.122375 18.384127 -1.8798749
-31.896374 18.410875 -1.87625
-31.62525 18.44725 -1.86975
-31.393499 18.387001 -1.8615
-31.138336 18.382999 -1.8523333
-30.883165 18.367668 -1.8501667
-30.706667 18.439779 -1.8526665
-30.386391 18.380362 -1.85875
-30.149223 18.364349 -1.9088116
-29.899899 18.36755 -1.93875
-29.639502 18.395166 -1.9383334
-29.30875 18.29175 -1.936
-29.132101 18.339399 -1.9345
-28.657459 18.329624 -1.928875
-34.144798 18.7017 -1.8979
-33.952 18.643999 -1.897
-33.08725 18.608126 -1.87975
-32.9245 18.646 -1.8842499
-31.62825 18.66375 -1.86875
-30.6394 18.609734 -1.8482666
-30.336166 18.599377 -1.8595417
-30.112503 18.65361 -1.89378
-29.921667 18.667418 -1.9325001
-29.655502 18.59325 -1.9427501
-29.327375 18.67 -1.9458749
-29.107332 18.614668 -1.941
-28.870499 18.650501 -1.941
-28.590668 18.672333 -1.9395
-28.4445 18.6 -1.9345
-34.113998 18.857 -1.8989999
-33.863201 18.8048 -1.8926001
-33.671001 18.812 -1.8915
-33.426998 18.969 -1.89
-33.027 18.833 -1.882
-32.973 18.833 -1.882
-32.335598 18.812801 -1.8836
-32.16967 18.856001 -1.8823335
-31.589951 18.896051 -1.8472
-31.483999 18.809999 -1.869
-31.249001 18.757 -1.8609999
-30.507 18.782 -1.847
-30.356445 18.865026 -1.8510833
-30.093298 18.880383 -1.8819834
-29.934668 18.909208 -1.9132223
-29.652431 18.858967 -1.9432001
-29.483501 18.885 -1.9523332
-29.078001 18.859833 -1.9476666
-28.775 18.962999 -1.952
-28.740499 18.895 -1.9505
-28.366501 18.870251 -1.9430001
-35.634583 19.144361 -1.9088055
-35.4375 19.153 -1.9184999
-35.141666 19.137667 -1.9181666
-34.885666 19.133333 -1.9136667
-34.056999 19.073 -1.9
-33.861668 19.053833 -1.8968333
-33.64875 19.032 -1.896
-33.338333 19.196669 -1.8966666
-33.216 19.128 -1.8890001
-32.818001 19.049999 -1.8824999
-32.699944 19.099611 -1.8826112
-32.366501 19.086832 -1.882
-32.163166 19.182751 -1.8638749
-31.564266 19.112951 -1.8472834
-31.418999 19.116001 -1.8745
-30.333 19.102501 -1.8499999
-30.128536 19.135178 -1.8624642
-29.872755 19.129248 -1.9045554
-29.62925 19.121029 -1.9405278
-29.405802 19.153034 -1.9499668
-29.158001 19.1255 -1.95525
-28.846668 19.116917 -1.9561667
-28.592333 19.117666 -1.956
-28.408749 19.143749 -1.9514999
-35.842999 19.292 -1.895
-35.6506 19.3493 -1.89735
-35.429111 19.415222 -1.917111
-35.030334 19.342001 -1.9206667
-34.89225 19.390751 -1.9225
-33.870502 19.408001 -1.9018333
-33.328999 19.252001 -1.899
-33.191002 19.485001 -1.891
-32.886669 19.408834 -1.8891667
-32.239998 19.368999 -1.8915
-31.577 19.441 -1.8872499
-31.497 19.451 -1.8839999
-31.137001 19.4105 -1.8775001
-30.3125 19.46825 -1.8525
-30.118435 19.353668 -1.8584
-29.815897 19.354645 -1.8944687
-29.634232 19.426229 -1.9353335
-29.404501 19.425001 -1.9536667
-29.164902 19.3556 -1.9626
-28.85675 19.373249 -1.9635
-28.595249 19.38475 -1.9599999
-28.34025 19.365 -1.9534999
-28.114002 19.360266 -1.9504
-35.768002 19.671 -1.906
-35.702667 19.528833 -1.8996667
-35.366375 19.625626 -1.9191251
-35.210999 19.656 -1.921
-34.831627 19.57275 -1.921625
-33.617249 19.57325 -1.9045
-33.456001 19.610001 -1.904
-32.709 19.634001 -1.895
-32.292999 19.527 -1.8900001
-32.073414 19.604834 -1.8892502
-31.932249 19.574001 -1.8882501
-31.636999 19.61475 -1.88775
-31.330999 19.562 -1.885
-31.221001 19.540001 -1.8840001
-30.105999 19.575249 -1.8585
-29.908722 19.622999 -1.8638889
-29.658512 19.624022 -1.9105994
-29.36661 19.639555 -1.9584723
-29.124899 19.600498 -1.9703001
-28.757 19.500999 -1.966
-28.525 19.552 -1.959
-28.143667 19.642166 -1.9572501
-27.996 19.681 -1.956
-35.683128 19.882999 -1.9181249
-35.387333 19.910887 -1.9263334
-35.154999 19.901001 -1.9265001
-34.8615 19.910999 -1.9215
-34.704247 19.821501 -1.923
-33.598999 19.851 -1.9069999
-33.356834 19.803167 -1.9073334
-33.021 19.966999 -1.9065
-32.587002 19.965 -1.9
-32.290001 19.912001 -1.904
-32.200665 19.876333 -1.8980001
-31.838875 19.898626 -1.89475
-31.610001 19.891001 -1.895
-31.313 19.795 -1.8890001
-31.212231 19.84045 -1.8452333
-30.8435 19.908001 -1.8815
-30.634501 19.834499 -1.8735
-30.048666 19.800501 -1.8618333
-29.892334 19.853333 -1.8578333
-29.636253 19.861336 -1.8867073
-29.418251 19.905458 -1.959875
-29.1565 19.865501 -1.9741001
-28.899778 19.87611 -1.9764446
-28.655874 19.834873 -1.96925
-28.297001 19.923 -1.9630001
-28.110897 19.861599 -1.9588
-27.618502 19.932751 -1.9545
-35.404747 20.2215 -1.9335001
-34.842415 20.098501 -1.9276667
-34.614376 20.178625 -1.9335001
-34.392334 20.126669 -1.9280001
-33.623001 20.119499 -1.9165
-33.445 20.045 -1.913
-33.098999 20.091 -1.91
-32.915501 20.042999 -1.9054999
-32.59021 20.136625 -1.8928334
-32.41 20.171999 -1.9036666
-31.917833 20.07925 -1.8716668
-31.606445 20.141388 -1.8913889
-31.37175 20.172001 -1.89125
-31.063 20.1745 -1.8895
-30.872332 20.137667 -1.886
-30.663666 20.072001 -1.8806667
-29.585754 20.125603 -1.8797698
-29.40766 20.120604 -1.9511684
-29.143583 20.108583 -1.9727501
-28.854776 20.094555 -1.9757777
-28.631556 20.144222 -1.9736667
-35.369301 20.396299 -1.9283001
-35.094627 20.413376 -1.9305
-34.820999 20.475 -1.934
-34.672501 20.444 -1.93525
-34.334999 20.386 -1.933
-33.636997 20.385334 -1.9213333
-33.330002 20.422333 -1.9160001
-32.961334 20.483002 -1.9089999
-32.595001 20.351 -1.906
-32.230003 20.296501 -1.904
-31.690001 20.252001 -1.891
-31.3426 20.364799 -1.8918002
-29.771999 20.374001 -1.858
-29.606653 20.3438 -1.8746001
-29.381491 20.365053 -1.9364127
-29.121099 20.333599 -1.9754002
-28.855833 20.320665 -1.9755
-28.623688 20.373688 -1.9758126
-27.620874 20.405125 -1.9621251
-35.420773 20.712812 -1.9166875
-35.094418 20.62775 -1.93475
-34.963837 20.641834 -1.9378333
-34.664001 20.5945 -1.939
-34.449997 20.663502 -1.9405
-33.477249 20.6185 -1.9200001
-33.149498 20.669376 -1.914125
-31.679892 20.666595 -1.8486546
-31.378836 20.576666 -1.8948332
-29.605249 20.618999 -1.8751668
-29.386316 20.604389 -1.9083503
-29.152906 20.62281 -1.9611825
-28.951 20.717751 -1.9812499
-28.625168 20.674416 -1.9742501
-27.8405 20.744999 -1.9725001
-27.582876 20.624584 -1.9681667
-27.458 20.658001 -1.969
-35.426331 20.872334 -1.9227917
-35.113667 20.922998 -1.9406667
-34.952 20.816 -1.943
-34.650002 20.928001 -1.9455
-34.297501 20.9825 -1.9405
-34.124001 20.875 -1.933
-29.539 20.88225 -1.8777499
-29.377604 20.86627 -1.8937917
-29.129959 20.857466 -1.9518871
-28.873001 20.8815 -1.9794999
-28.6038 20.868399 -1.9775
-28.125378 20.880625 -1.976125
-27.945 20.822001 -1.9760001
-27.528749 20.927 -1.9765
-27.390999 20.875334 -1.9729999
-35.0755 21.0725 -1.9430001
-34.629501 21.052834 -1.9449999
-34.379997 21.117001 -1.9465001
-34.249001 21.219 -1.9450001
-33.386501 21.09 -1.9305
-33.174168 21.184668 -1.9296668
-29.329641 21.126999 -1.8912001
-29.113482 21.143675 -1.9324197
-28.969 21.194 -1.978
-28.622583 21.107332 -1.9815835
-28.329 21.113501 -1.9816667
-28.092251 21.145542 -1.9868751
-27.934999 21.182999 -1.9865
-27.577499 21.0485 -1.9765
-27.341999 21.143501 -1.9775
-35.12513 21.294399 -1.9433334
-34.846996 21.369331 -1.9428334
-34.534389 21.366835 -1.9476666
-34.470001 21.387501 -1.9425
-34.109165 21.313667 -1.9453335
-33.396 21.341999 -1.938
-33.026337 21.333334 -1.9330001
-31.504999 21.464001 -1.926
-31.411751 21.463749 -1.92925
-29.356833 21.340572 -1.8899049
-29.126354 21.387896 -1.9140832
-28.889425 21.394882 -1.9674137
-28.594 21.4035 -1.99125
-28.4205 21.363499 -1.987
-28.078499 21.383999 -1.99325
-27.8475 21.3785 -1.989
-27.609791 21.383499 -1.983
-35.050999 21.747 -1.943
-34.918335 21.565666 -1.9440001
-34.653 21.561001 -1.94125
-34.400249 21.612999 -1.94275
-34.123875 21.651875 -1.949
-33.938335 21.633001 -1.9473333
-33.276001 21.597 -1.939
-33.046001 21.708 -1.936
-32.9245 21.590834 -1.934
-32.585999 21.636999 -1.933
-32.115334 21.584167 -1.9263334
-31.888334 21.560667 -1.9311666
-29.291834 21.603334 -1.8995
-29.121933 21.658535 -1.9077333
-28.872757 21.629816 -1.9480833
-28.627501 21.595499 -1.9921666
-28.1542 21.639 -1.9965999
-27.834999 21.617001 -1.9935
-35.138336 21.842499 -1.9443334
-34.799 21.898001 -1.943
-34.527 21.810501 -1.9395001
-34.340611 21.872278 -1.9383334
-34.207748 21.945751 -1.9447501
-33.813 21.842001 -1.9510001
-33.652 21.806 -1.949
-33.018002 21.823 -1.939
-32.831749 21.906002 -1.94025
-32.609001 21.966499 -1.9395001
-32.1278 21.876934 -1.9348667
-31.886751 21.895 -1.941
-31.66 21.761999 -1.949
-29.337 21.813 -1.902
-29.104248 21.917376 -1.9078749
-28.863632 21.833725 -1.9373971
-28.684828 21.911652 -1.9775238
-28.03125 21.86475 -1.9995
-34.799 22.213001 -1.93425
-34.587502 22.162998 -1.9345
-34.382 22.210999 -1.939
-34.152374 22.082499 -1.9477501
-33.817001 22.181 -1.961
-33.73 22.09 -1.957
-33.116753 22.081501 -1.94375
-32.811249 22.092499 -1.9445
-32.75 22.011999 -1.941
-32.431667 22.183668 -1.9388332
-32.195999 22.125 -1.9372499
-31.8895 22.161041 -1.9440832
-31.606001 22.119665 -1.954
-29.091564 22.1483 -1.9125668
-28.892876 22.128876 -1.9230834
-28.656546 22.12462 -1.9618334
-28.48 22.117001 -1.998
-34.534752 22.298752 -1.93425
-34.355503 22.374834 -1.9331665
-34.103168 22.397499 -1.9541668
-33.861 22.278999 -1.959
-33.681999 22.465 -1.965
-32.868 22.378 -1.9504
-32.351665 22.389666 -1.9426666
-32.203999 22.472 -1.943
-31.883001 22.346167 -1.9449999
-31.591835 22.314333 -1.9531666
-28.876791 22.35775 -1.9200001
-28.627487 22.362581 -1.9481393
-28.413694 22.376108 -1.9870278
-34.317001 22.509001 -1.932
-34.05175 22.703751 -1.957
-33.897873 22.700249 -1.9719999
-31.869209 22.56275 -1.9488333
-31.720335 22.632 -1.9486666
-30.612 22.694 -1.957
-30.292833 22.698832 -1.9538335
-29.644001 22.708 -1.9295
-29.346498 22.670668 -1.9241667
-29.128166 22.600998 -1.9221667
-28.9035 22.6255 -1.931875
-28.583126 22.520748 -1.9375
-28.426285 22.666468 -1.9632918
-34.164291 22.848583 -1.9422083
-33.891834 22.88554 -1.9666251
-33.709503 22.880001 -1.9744999
-31.256001 22.767 -1.965
-31.167873 22.924 -1.967375
-30.815001 22.945 -1.965
-30.7185 22.922501 -1.9625
-30.321499 22.8165 -1.9579999
-30.109377 22.843874 -1.949375
-29.894333 22.865999 -1.9381666
-29.698999 22.801001 -1.9299999
-29.394249 22.914125 -1.9289999
-29.168665 22.816666 -1.9276667
-28.825834 22.776581 -1.93225
-28.627399 22.858833 -1.9303334
-34.05825 23.115126 -1.9565001
-33.89875 23.115875 -1.9792501
-31.915249 23.097834 -1.9573333
-31.574467 23.131802 -1.9640999
-31.160166 23.0895 -1.9686667
-30.8745 23.0215 -1.964
-30.625998 23.124365 -1.9540558
-30.403252 23.121502 -1.9482501
-30.1705 23.1625 -1.9414999
-29.890999 23.087502 -1.934
-29.609501 23.120998 -1.9305
-29.301332 23.085665 -1.9316667
-29.113083 23.068167 -1.9310833
-28.919168 23.148111 -1.9286667
-28.653 23.171501 -1.92625
-34.398449 23.398666 -1.9548888
-34.079002 23.34 -1.988
-32.050999 23.416 -1.9635
-31.92775 23.401749 -1.9597499
-31.533501 23.42 -1.95875
-31.398916 23.331249 -1.9621667
-31.141262 23.365286 -1.9572381
-30.562 23.309 -1.949
-30.421 23.304001 -1.9475
-30.074333 23.345667 -1.9419999
-29.879623 23.37175 -1.939625
-29.586624 23.341125 -1.933125
-29.400249 23.365501 -1.92925
-29.156 23.372 -1.932
-28.880499 23.417999 -1.93075
-28.596334 23.431334 -1.933
-34.368999 23.5385 -1.9760001
-32.067001 23.546501 -1.9635
-31.882555 23.601334 -1.9603333
-31.6355 23.571501 -1.9605
-31.03775 23.612751 -1.9555
-30.907625 23.602749 -1.9545
-30.651375 23.637375 -1.955125
-30.313999 23.68 -1.948
-30.23525 23.592499 -1.943
-29.551001 23.653999 -1.9400001
-29.366278 23.604166 -1.9375
-29.047001 23.587 -1.936
-28.850836 23.567499 -1.9326668
-28.625666 23.622332 -1.9333334
-33.667458 23.915459 -1.9771249
-32.273998 23.995001 -1.97
-32.159 23.98 -1.973
-31.680887 23.863556 -1.9651943
-31.334 23.881001 -1.966
-31.117001 23.785 -1.96
-30.76 23.897751 -1.95925
-30.602001 23.8165 -1.9584999
-30.337 23.957001 -1.9579999
-29.639334 23.861666 -1.9450001
-29.362999 23.876999 -1.9455
-29.134001 23.962 -1.9450001
-28.891998 23.803335 -1.9359999
-28.657 23.771999 -1.934
-33.62875 24.12775 -1.9614999
-33.336651 24.104702 -1.9854
-32.7995 24.142876 -1.9851251
-32.698502 24.08 -1.9795001
-32.239502 24.039501 -1.972
-31.773001 24.075001 -1.972
-31.5905 24.164 -1.9760001
-31.40275 24.202999 -1.9777501
-31.156 24.233 -1.972
-30.913 24.181999 -1.964
-30.604124 24.0905 -1.962625
-30.345665 24.144835 -1.9603333
-30.174391 24.140112 -1.9572223
-29.862499 24.163 -1.9584999
-29.521751 24.092499 -1.9530001
-29.492001 24.014999 -1.95
-29.0625 24.1185 -1.9449999
-33.641167 24.338367 -1.9642668
-33.258999 24.279499 -1.9844999
-33.205776 24.412668 -1.979611
-32.9175 24.3855 -1.9905
-32.620502 24.377748 -1.987
-31.8535 24.365501 -1.9844999
-31.517 24.443001 -1.982
-31.425499 24.3515 -1.9795001
-31.176001 24.353001 -1.975
-30.733999 24.461 -1.965
-30.421001 24.403999 -1.965
-30.078499 24.310499 -1.96425
-29.806 24.446499 -1.9660001
-29.605667 24.380835 -1.9575
-29.427 24.271 -1.95
-29.25 24.264999 -1.946
-33.4095 24.64875 -1.96525
-33.146084 24.617582 -1.9809585
-32.969002 24.620167 -1.9888334
-32.62833 24.663 -1.9949999
-32.433998 24.664499 -1.9925001
-31.584 24.688 -1.9879999
-31.361 24.566 -1.988
-31.158001 24.589001 -1.983
-30.573 24.65 -1.971
-30.365999 24.639 -1.972
-30.216999 24.677 -1.979
-29.827 24.532 -1.965
-29.58025 24.713501 -1.9697499
-29.304001 24.606779 -1.9619999
-29.226999 24.700001 -1.964
-33.359001 24.870249 -1.963125
-33.137699 24.854198 -1.9778999
-32.945251 24.939499 -1.9896666
-32.227001 24.847 -2
-31.60725 24.866501 -1.99775
-31.3365 24.820501 -1.9931666
-31.018 24.972 -1.992
-30.339874 24.894938 -1.9785001
-30.052 24.931999 -1.9825001
-29.802 24.792999 -1.973
-29.723 24.763 -1.972
-33.105202 25.154152 -1.9628
-32.874249 25.113043 -1.9902083
-31.271999 25.031 -1.9960001
-30.380749 25.050751 -1.9790001
-30.185062 25.161188 -1.9814999
-29.666 25.069 -1.9809999
-29.497 25.033001 -1.974
-33.088001 25.42 -1.9580001
-32.923248 25.352625 -1.9790001
-32.722748 25.33 -1.9990001
-31.275999 25.396 -2
-31.078501 25.295668 -1.9975001
-30.982 25.302 -2
-30.068001 25.348665 -1.9873333
-29.932251 25.37575 -1.98525
-33.071667 25.572666 -1.9613334
-32.863972 25.603525 -1.9873611
-30.052999 25.539 -1.9910001
-29.870499 25.547001 -1.994
-32.943111 25.851667 -1.9842223
-32.686329 25.926666 -1.9959999
-32.823502 26.029499 -1.997
-32.599667 26.119833 -1.998
-33.251999 27.174999 -1.995
-33.223 27.249001 -1.9820001
-28.807093 27.133886 -1.8699219
-28.744999 27.22875 -1.94375
-33.290001 27.449499 -1.99275
-33.157001 27.414667 -1.9910001
-33.271 27.544001 -1.987
-33.124001 27.658802 -1.9918001
-33.063999 27.823 -1.9910001
-31.540501 18.993999 -1.65775
-32.213833 19.2465 -1.6953332
-31.563108 19.02318 -1.5994883
-32.190575 19.285297 -1.6132976
-31.232035 19.793251 -1.6233833
-31.888947 20.036417 -1.6508889
