# .PCD v0.7 - Point Cloud Data file format
VERSION 0.7
FIELDS x y z
SIZE 4 4 4
TYPE F F F
COUNT 1 1 1
WIDTH 254
HEIGHT 1
VIEWPOINT -18.2321 96.2205 -1.35163 -0.354149 -0.00701479 0.0211809 0.934923
POINTS 254
DATA ascii
-45.306 3.4534998 15.986
-45.165001 3.855 15.973
-45.032001 4.132 15.95
-45.057999 4.448 15.994
-44.807999 4.6634998 15.919001
-44.8125 5.151125 15.974875
-44.627502 5.1830001 15.903
-44.776497 5.3409996 15.992
-44.630219 5.4194446 15.937111
-44.647346 5.6102247 15.929875
-44.563038 5.8538265 15.914884
-44.514351 6.0423002 15.914751
-44.464001 6.1426001 15.911768
-44.377125 6.3574891 15.9025
-44.295952 6.6327634 15.904317
-44.141998 6.6830001 15.8
-44.194103 6.8852334 15.89874
-44.105232 7.1298738 15.883148
-44.033836 7.3666334 15.897734
-43.968719 7.4028335 15.847
-44.042 7.5840001 15.9705
-43.915215 7.6234298 15.877014
-46.411148 0.90434998 16.175135
-46.319656 1.1447556 16.160822
-46.285 1.257 16.153624
-46.207294 1.4094441 16.127853
-46.120621 1.6353203 16.104921
-46.051498 1.8637916 16.108355
-45.985336 1.9013333 16.078001
-46.00375 2.0190001 16.091499
-45.950886 2.1495726 16.107849
-46.076 2.2649999 16.243
-45.870625 2.3674426 16.088533
-45.842991 2.6185002 16.153656
-45.856892 2.8547781 16.224277
-45.684544 2.8756692 16.098656
-45.764099 3.0972333 16.209167
-45.619354 3.128521 16.111938
-45.632114 3.3430333 16.171326
-45.465836 3.4443331 16.066334
-45.591869 3.6147468 16.207394
-45.402611 3.6133454 16.070715
-45.532822 3.7989943 16.204332
-45.405102 3.897424 16.132198
-45.424652 4.1022124 16.204676
-45.210819 4.1486573 16.054598
-45.331181 4.3494859 16.186501
-45.14146 4.3944793 16.055834
-45.269749 4.5986667 16.218958
-45.141464 4.6790209 16.127922
-44.992001 4.698 16.045
-45.149986 4.8808465 16.183027
-44.953751 4.8556671 16.029585
-45.052433 5.1691666 16.186134
-44.920158 5.1306267 16.061199
-45.019142 5.3260713 16.212856
-44.88921 5.3733158 16.092564
-44.868408 5.6058202 16.140425
-44.654999 5.6590004 16.008999
-44.821617 5.8382707 16.171534
-44.678169 5.9043002 16.0527
-44.778694 6.0931196 16.239643
-44.654648 6.1589942 16.106194
-44.485001 6.1929998 16
-44.623562 6.3789225 16.15377
-44.498001 6.4780002 16.041
-44.544449 6.6442437 16.172651
-44.472973 6.6248336 16.067333
-44.416641 6.8809247 16.110231
-44.354958 7.109374 16.126102
-44.310074 7.3505349 16.174091
-44.197456 7.4041042 16.037918
-44.268913 7.6084146 16.241959
-46.577885 1.1108334 16.410019
-46.446209 1.1485001 16.279667
-46.532818 1.3556825 16.464018
-46.424229 1.388922 16.325922
-46.370071 1.6344849 16.361931
-46.311462 1.8622358 16.386787
-46.206421 1.9252501 16.267834
-46.2878 2.0673001 16.4529
-46.187954 2.1447048 16.341471
-46.13311 2.3704085 16.374426
-46.068005 2.6040711 16.393181
-45.974098 2.6662998 16.28495
-46.026836 2.862365 16.464073
-45.946857 2.8801498 16.352266
-45.882462 3.1317976 16.383812
-45.795307 3.3623843 16.374411
-45.728321 3.4066668 16.291634
-45.783497 3.5733335 16.461056
-45.690338 3.6354973 16.351032
-45.625751 3.8623168 16.372879
-45.55648 4.1111298 16.400627
-45.480247 4.1532497 16.31225
-45.522335 4.3378334 16.469166
-45.431114 4.37391 16.347841
-45.375221 4.6142688 16.384514
-45.31036 4.8531394 16.409489
-45.211357 4.9116917 16.289217
-45.268169 5.0446668 16.444166
-45.178574 5.131474 16.353346
-45.112514 5.3749075 16.376369
-45.069683 5.5946164 16.42614
-44.964714 5.6723537 16.30419
-45.015442 5.8362784 16.464001
-44.920044 5.8990188 16.351555
-44.867409 6.1212468 16.388985
-44.741665 6.2436666 16.259335
-44.794456 6.3729644 16.407459
-44.717892 6.4030557 16.30789
-44.751503 6.5473337 16.435501
-44.671806 6.6319475 16.359612
-44.596287 6.8638997 16.362354
-44.550831 7.1091256 16.422674
-44.45414 7.1689138 16.304379
-44.512329 7.3410006 16.477335
-44.42157 7.3913651 16.368683
-44.365326 7.6158609 16.393429
-46.778225 1.0815477 16.700016
-46.697346 1.1294166 16.599348
-46.634964 1.3619251 16.628452
-46.569099 1.6268182 16.659721
-46.471806 1.6581665 16.52614
-46.5215 1.8285 16.694
-46.443928 1.8875293 16.6012
-46.377522 2.1117675 16.612942
-46.31567 2.3460331 16.643494
-46.20525 2.4300001 16.525333
-46.287834 2.5888333 16.726168
-46.19276 2.6410983 16.604326
-46.118073 2.8913665 16.623022
-46.06572 3.1070981 16.651941
-45.978756 3.1580334 16.5432
-46.040436 3.3019524 16.715744
-45.9366 3.3936501 16.603149
-45.866615 3.6451488 16.626333
-45.826023 3.8594666 16.677017
-45.71703 3.918972 16.54368
-45.790337 4.0546665 16.726334
-45.676735 4.14994 16.603683
-45.620556 4.3803415 16.639565
-45.493999 4.4889998 16.509001
-45.56926 4.60322 16.676117
-45.471043 4.6724586 16.562626
-45.530609 4.8030553 16.719557
-45.419891 4.9137011 16.605003
-45.357956 5.1315289 16.626858
-45.309376 5.3679399 16.672943
-45.209972 5.4188576 16.544065
-45.268665 5.6114168 16.736
-45.172298 5.6499538 16.612661
-45.111202 5.8736529 16.633234
-44.999001 5.973 16.513
-45.062695 6.0791626 16.669001
-44.955528 6.1652822 16.549454
-45.012497 6.2550001 16.683001
-44.931038 6.3761463 16.61911
-44.843563 6.6159878 16.613646
-44.800053 6.8717527 16.679794
-44.712658 6.8741426 16.546804
-44.778 7.0616674 16.744167
-44.671383 7.1272836 16.621323
-44.594936 7.3488607 16.616341
-44.495499 7.4815001 16.526501
-44.539646 7.6274419 16.682272
-46.877136 1.1097825 16.875874
-46.810814 1.3588583 16.901688
-46.719986 1.43135 16.801411
-46.777557 1.5869168 16.966166
-46.673077 1.6361638 16.825724
-46.635521 1.8553146 16.882769
-46.563286 2.1143987 16.903103
-46.444843 2.1933856 16.760815
-46.517574 2.3847141 16.980429
-46.440559 2.3899281 16.862349
-46.370159 2.6340318 16.877522
-46.312553 2.8453906 16.900652
-46.224899 2.9097083 16.79986
-46.282646 3.0320001 16.952143
-46.181187 3.1513193 16.854635
-46.12727 3.3659885 16.885441
-46.066807 3.5766721 16.89893
-45.963596 3.6570358 16.782631
-46.028503 3.81025 16.958832
-45.937885 3.8799522 16.858856
-45.872997 4.1183124 16.881931
-45.807934 4.3591948 16.911676
-45.731998 4.3480277 16.790972
-45.787003 4.5374999 16.969584
-45.692837 4.6300664 16.87517
-45.609978 4.8537617 16.865662
-45.559002 5.1034141 16.914614
-45.441265 5.1859002 16.782251
-45.516998 5.3439999 16.983
-45.422741 5.3692813 16.849773
-45.357861 5.6363692 16.885208
-45.30558 5.8491049 16.922071
-45.223167 5.8916254 16.817562
-45.254715 6.0455718 16.947289
-45.158566 6.1546855 16.853884
-45.089664 6.3813009 16.868053
-45.055801 6.6134553 16.9345
-44.956558 6.6453447 16.801071
-45.004501 6.822 16.9715
-44.915104 6.8949151 16.867018
-44.853428 7.121623 16.899788
-44.7425 7.1954165 16.765167
-44.78664 7.3400559 16.925951
-44.693356 7.4220123 16.80875
-44.650753 7.6113434 16.862774
-46.966595 1.1443334 17.046057
-47.017502 1.3238 17.214798
-46.927975 1.3951795 17.10891
-46.869473 1.6240618 17.140209
-46.805309 1.8517383 17.160839
-46.704002 1.9507501 17.036375
-46.759335 2.0466666 17.232
-46.690311 2.1488793 17.141792
-46.600403 2.380465 17.13007
-46.497002 2.494 17.006001
-46.540531 2.6048319 17.157784
-46.475403 2.6259999 17.0348
-46.421387 2.877161 17.109859
-46.341633 3.0952876 17.086737
-46.291916 3.2940533 17.130924
-46.221272 3.4267502 17.075871
-46.15379 3.645618 17.090656
-46.073956 3.8797262 17.102364
-46.020748 4.0837502 17.097374
-45.971188 4.1535335 17.086166
-45.892006 4.3925872 17.084913
-45.803711 4.6294169 17.076231
-45.743999 4.737 17.112999
-45.698601 4.9058189 17.073599
-45.623638 5.1221118 17.068277
-45.542419 5.3524704 17.048397
-45.494751 5.42875 17.0375
-45.509998 5.5190001 17.061001
-45.429317 5.6468949 17.045862
-45.34827 5.8797708 17.041208
-45.290749 6.04245 17.032051
-45.236984 6.2015362 17.03207
-45.154797 6.3746004 17.028149
-45.06308 6.6233587 17.023327
-45.005501 6.8214998 17.007999
-44.971054 6.8643336 17.012419
-44.876503 7.099 17.011
-44.775002 7.3790002 17.009001
-44.746002 7.4554996 17.0005
-47.004002 1.434 17.25
-46.984001 1.3870001 17.252666
-46.896999 1.592 17.253
-46.799999 1.8839999 17.25
