# .PCD v0.7 - Point Cloud Data file format
VERSION 0.7
FIELDS x y z
SIZE 4 4 4
TYPE F F F
COUNT 1 1 1
WIDTH 70
HEIGHT 1
VIEWPOINT -18.2321 96.2205 -1.35163 -0.354149 -0.00701479 0.0211809 0.934923
POINTS 70
DATA ascii
-112.8065 -61.067497 3.2214999
-112.67225 -61.172249 3.151
-113.103 -60.801666 3.1459999
-112.9705 -60.952499 3.244
-113.3675 -60.605499 3.1900001
-113.214 -60.736 3.1700001
-113.77 -60.306999 3.174
-114.3065 -59.823997 3.2335
-114.5995 -59.572998 3.1875
-114.458 -59.700001 3.161
-112.542 -61.285 3.3775001
-112.8045 -61.06675 3.39975
-112.67741 -61.175838 3.3635836
-113.1055 -60.820332 3.3566666
-112.951 -60.942497 3.3770001
-113.37881 -60.587799 3.3841999
-113.2085 -60.733002 3.3494999
-113.754 -60.299 3.2650001
-113.60789 -60.386444 3.4068336
-114.0355 -60.043999 3.3724999
-113.84475 -60.196747 3.375
-114.2965 -59.818253 3.3700001
-114.14651 -59.946335 3.3473332
-114.602 -59.574001 3.3696671
-114.43267 -59.703999 3.3406665
-111.518 -62.255001 3.704
-111.385 -62.2775 3.655
-112.258 -62.049 3.7320001
-112.1195 -62.121002 3.7325001
-111.936 -62.175999 3.727
-111.60563 -62.1105 3.6038752
-111.42751 -62.204002 3.5669999
-112.569 -61.812 3.7420001
-112.39867 -61.918335 3.724
-111.86479 -61.818596 3.5901999
-111.712 -61.946999 3.5999999
-112.86 -61.556 3.7290001
-112.637 -61.742001 3.7460001
-112.405 -61.518002 3.6570001
-112.12325 -61.614246 3.5848753
-113.1235 -61.338501 3.6914999
-112.97 -61.310001 3.664
-112.53 -61.480999 3.6559999
-112.439 -61.341251 3.5821252
-113.377 -61.095749 3.7397499
-113.02 -61.236 3.664
-112.8095 -61.042999 3.54075
-112.6205 -61.196499 3.5567498
-113.764 -60.811001 3.6930001
-113.6015 -60.91275 3.7145
-113.319 -60.935501 3.6325002
-113.029 -60.883499 3.5770001
-112.90974 -60.9445 3.5502501
-114.021 -60.546001 3.7279999
-113.852 -60.537334 3.6723335
-113.702 -60.581001 3.6689999
-113.33099 -60.642666 3.5615556
-113.201 -60.729 3.529
-114.328 -60.299999 3.7149999
-114.14866 -60.407833 3.7236669
-113.63567 -60.337666 3.536
-114.6075 -60.135002 3.681
-114.393 -60.1805 3.6599998
-114.0135 -60.135002 3.5574999
-113.836 -60.192497 3.51
-114.145 -59.893002 3.5183334
-114.35975 -59.674248 3.51475
-112.67759 -61.673328 3.8414171
-113.11 -61.345802 3.8287997
-113.7205 -60.638 3.8201668
