# .PCD v0.7 - Point Cloud Data file format
VERSION 0.7
FIELDS x y z
SIZE 4 4 4
TYPE F F F
COUNT 1 1 1
WIDTH 1540
HEIGHT 1
VIEWPOINT -18.2321 96.2205 -1.35163 -0.354149 -0.00701479 0.0211809 0.934923
POINTS 1540
DATA ascii
-90.227005 -76.781502 7.8745003
-90.417297 -76.603607 7.8593993
-91.359192 -76.073593 7.8907995
-91.735748 -75.772751 7.914
-91.472 -75.991997 7.8699999
-91.082748 -75.995255 7.882
-91.806999 -75.729752 7.8790002
-92.854164 -75.116829 7.8863335
-92.622498 -75.2015 7.9207501
-93.336998 -74.819 7.9119997
-93.105499 -74.910507 7.8557997
-94.693001 -73.970001 7.9710002
-95.068497 -73.517746 7.8845
-94.959084 -73.655869 7.8759284
-95.771393 -73.259941 7.8554997
-95.134338 -73.462334 7.8449998
-96.133499 -73.056503 7.8639998
-96.294334 -72.914665 7.868
-96.923599 -72.571205 7.836
-96.540001 -72.622002 7.8393331
-96.357422 -72.693001 7.8933339
-97.650665 -72.069328 7.8406663
-98.008499 -71.813004 7.8889999
-97.785378 -71.805 7.9041252
-97.64817 -71.917336 7.8423333
-98.560501 -71.581001 7.9735003
-98.457001 -71.592834 7.8303332
-98.896805 -71.319298 7.8877001
-99.004997 -71.165001 7.8790002
-98.994499 -71.158005 7.8789997
-99.44838 -70.801498 7.9117498
-99.882744 -70.541626 7.8444996
-99.65493 -70.674217 7.8909287
-99.953995 -70.477997 7.9204998
-86.2565 -79.059914 8.1533327
-86.171501 -79.144745 8.1145
-86.654472 -78.807861 8.1159525
-86.395401 -78.973991 8.1166
-87.382668 -78.620171 8.1161661
-87.051842 -78.514336 8.1521673
-86.913551 -78.637665 8.1148338
-88.221001 -78.333 8.0834999
-87.769005 -78.260002 8.1619997
-87.692009 -78.306664 8.1570005
-88.179665 -78.196999 8.1289997
-87.938332 -78.200996 8.1126661
-90.282326 -77.059669 8.1519995
-90.916008 -76.610085 8.0826664
-90.428833 -76.580833 8.1531668
-90.512001 -76.494003 8.2480001
-91.27433 -76.047668 8.1609993
-91.020332 -76.048668 8.1393328
-91.651001 -75.853668 8.1503334
-91.457001 -75.979332 8.1196671
-91.074005 -75.988335 8.1516666
-91.77549 -75.738831 8.1473322
-92.858002 -75.084198 8.1350002
-92.640244 -75.165756 8.1677494
-92.356377 -75.196503 8.1340008
-93.641495 -74.903252 8.1077499
-93.113503 -74.885498 8.1358004
-92.875 -74.995003 8.2449999
-94.3741 -74.124596 8.1401997
-94.68634 -73.964668 8.1399994
-95.333 -73.500999 8.0959997
-95.06266 -73.513664 8.1576662
-94.960136 -73.625717 8.1160002
-95.768501 -73.251999 8.0345001
-95.331001 -73.498505 8.0979996
-95.122498 -73.453247 8.118
-96.4105 -73.054001 8.1749992
-95.833778 -73.192772 8.1071119
-96.304871 -72.897247 8.1122503
-96.978249 -72.527252 8.1195002
-96.512497 -72.601997 8.0475006
-96.361565 -72.684624 8.1341877
-97.136665 -72.380165 8.1623335
-97.643753 -72.064751 8.1172504
-98.004997 -71.809998 8.0830002
-97.851501 -71.777496 8.1547508
-97.679749 -71.886253 8.1199999
-98.486 -71.525497 8.0907497
-98.073997 -71.75 8.2329998
-98.890495 -71.311996 8.1344995
-98.535004 -71.454002 8.2489996
-99.002998 -71.164001 8.0489998
-98.97467 -71.180336 8.1966667
-99.440498 -70.796165 8.1359997
-99.838623 -70.548752 8.0854998
-99.634743 -70.67469 8.1253757
-99.942665 -70.470337 8.1333342
-86.257339 -79.051414 8.383667
-86.590973 -78.83741 8.3573885
-86.402 -78.957703 8.3779011
-87.313751 -78.562752 8.3325005
-87.034744 -78.52475 8.4072495
-86.894402 -78.645401 8.3603497
-86.745667 -78.740997 8.3540001
-87.763 -78.254997 8.3249998
-87.604408 -78.337105 8.3910999
-87.378502 -78.465744 8.401
-90.064003 -76.760002 8.3845005
-89.654076 -76.884933 8.3783569
-90.379402 -76.573105 8.3711004
-90.194458 -76.685043 8.3870411
-90.495003 -76.480003 8.4949999
-91.352997 -76.005997 8.2620001
-91.122498 -76.028 8.3977499
-91.593735 -75.833801 8.3766336
-91.404579 -75.927162 8.3665838
-91.065002 -75.981506 8.4204998
-92.792664 -75.037666 8.4043331
-92.643166 -75.138 8.3804169
-92.326073 -75.199142 8.3837862
-93.259003 -74.757004 8.3660002
-93.087837 -74.847946 8.3770285
-92.937607 -74.933899 8.3977995
-93.546509 -74.561333 8.3668337
-93.39344 -74.663445 8.3603888
-93.241997 -74.742996 8.4490004
-93.818405 -74.303802 8.3794003
-93.620003 -74.433746 8.3634176
-94.800003 -73.778 8.3805008
-94.610504 -73.885208 8.4136
-94.443001 -73.936005 8.4565001
-95.053497 -73.507248 8.3887501
-94.918388 -73.650833 8.3748894
-95.556335 -73.288666 8.3829994
-95.370583 -73.402161 8.3664999
-95.146744 -73.444 8.3682499
-96.427002 -73.066002 8.3030005
-95.835999 -73.100502 8.3752499
-95.654495 -73.217499 8.4110003
-96.145424 -72.86425 8.4110832
-96.861 -72.546494 8.276
-96.626831 -72.564995 8.3926668
-96.406448 -72.646194 8.3408499
-97.042503 -72.310165 8.3948336
-96.881851 -72.396431 8.3901424
-96.690002 -72.470001 8.4394999
-97.576996 -72.070496 8.2630005
-97.442505 -72.026001 8.3794994
-97.125 -72.220001 8.3845005
-97.877129 -71.77037 8.3377495
-97.654602 -71.888802 8.3457003
-97.497002 -71.957001 8.4230003
-98.303757 -71.554504 8.3140001
-98.115578 -71.638649 8.3472147
-97.935829 -71.686165 8.4428329
-98.603409 -71.339195 8.3343992
-98.387268 -71.437561 8.3900328
-98.862328 -71.14325 8.3800831
-98.700752 -71.209999 8.4165001
-99.426712 -70.796204 8.3814993
-99.829338 -70.542419 8.3664169
-99.620171 -70.673416 8.3730001
-99.940498 -70.468994 8.4127502
-86.610397 -78.814499 8.6300001
-86.4235 -78.932106 8.6459999
-87.256004 -78.543335 8.557333
-87.094666 -78.53183 8.6313334
-86.886688 -78.644424 8.624917
-86.748001 -78.725006 8.7439995
-87.585098 -78.298294 8.6249008
-87.372276 -78.413643 8.6517143
-87.147339 -78.484001 8.7416677
-87.853127 -78.117683 8.6233759
-87.687004 -78.216499 8.6704998
-89.535507 -77.076996 8.5609999
-89.364647 -77.127296 8.645896
-89.190002 -77.171333 8.6999998
-89.915833 -76.799835 8.5913343
-89.655075 -76.870583 8.6401339
-90.323494 -76.564003 8.5704994
-90.121666 -76.630554 8.655056
-89.89975 -76.703247 8.7107496
-90.649117 -76.299873 8.6122503
-90.399994 -76.422379 8.6695004
-91.004997 -76.037003 8.5550003
-90.872124 -76.123352 8.6349792
-90.653999 -76.230499 8.7299995
-91.371376 -75.856377 8.5912495
-91.125786 -75.947433 8.653429
-91.834801 -75.537399 8.6318998
-91.624435 -75.657936 8.6287498
-91.429001 -75.745003 8.6389999
-92.255669 -75.267006 8.7399998
-92.113853 -75.360001 8.5935717
-91.92675 -75.453751 8.6480007
-92.575638 -75.066147 8.626071
-92.357506 -75.17675 8.6323128
-93.042496 -74.771255 8.6455002
-92.885254 -74.861671 8.6271667
-92.734497 -74.931 8.6394997
-93.354668 -74.585243 8.6064177
-93.148499 -74.701302 8.6387997
-93.847 -74.259247 8.6362495
-93.640045 -74.381393 8.6161118
-93.445999 -74.481003 8.6230001
-94.1353 -74.081291 8.6521873
-93.909401 -74.205208 8.6121998
-94.5672 -73.810005 8.6202002
-94.36039 -73.930679 8.6025
-95.059998 -73.512001 8.6210003
-94.882172 -73.616058 8.6352224
-94.695999 -73.723747 8.6127491
-95.360909 -73.317421 8.6311674
-95.177902 -73.427902 8.5888004
-95.807503 -73.045502 8.6382504
-95.604584 -73.153748 8.5998888
-95.457001 -73.229996 8.5485001
-96.285004 -72.750999 8.6540003
-96.125069 -72.836586 8.632926
-95.924164 -72.950256 8.5675821
-96.591637 -72.556068 8.6563578
-96.393669 -72.668671 8.5891676
-97.056335 -72.270332 8.6619997
-96.89537 -72.360626 8.6166258
-96.7015 -72.460663 8.5641661
-97.437752 -72.023003 8.6129999
-97.113335 -72.211327 8.5946665
-97.807747 -71.797379 8.6344995
-97.639732 -71.899002 8.6103334
-98.142159 -71.591164 8.6014166
-97.955597 -71.708 8.6421995
-98.596169 -71.305832 8.5889339
-98.371216 -71.443932 8.6174994
-98.835785 -71.151451 8.6434441
-99.4245 -70.785164 8.6481667
-99.811806 -70.541603 8.6150007
-99.598083 -70.675079 8.6465836
-99.932335 -70.463661 8.6476669
-86.593605 -78.819199 8.8702002
-86.416924 -78.926422 8.9022493
-87.059494 -78.523003 8.9490004
-86.915123 -78.619125 8.8615627
-86.740509 -78.727921 8.8977499
-87.355667 -78.330864 8.8753567
-87.131874 -78.45575 8.8829994
-87.809898 -78.041 8.8452005
-87.630585 -78.151581 8.9000826
-87.475998 -78.222 8.79
-88.136276 -77.832054 8.8696098
-87.915497 -77.959877 8.8425007
-89.395996 -77.062164 8.8883343
-89.204407 -77.177399 8.9033003
-89.7995 -76.805496 8.911375
-89.599434 -76.926865 8.8725719
-89.439003 -76.994003 8.7600002
-90.256668 -76.52401 8.8396673
-90.089325 -76.585167 8.9136667
-89.926804 -76.722801 8.8846989
-90.565567 -76.302567 8.8999338
-90.379333 -76.407173 8.9178324
-91.043503 -76.025589 8.8868332
-90.865242 -76.136253 8.9088335
-90.718254 -76.2285 8.9095001
-91.392662 -75.805702 8.8785343
-91.183006 -75.936668 8.8744173
-91.793251 -75.555756 8.9126244
-91.600998 -75.674362 8.8844328
-92.282997 -75.252502 8.9235001
-92.127441 -75.348442 8.8633327
-91.939331 -75.464333 8.8575001
-92.584061 -75.058144 8.8954287
-92.383133 -75.181625 8.9020004
-93.042007 -74.7715 8.8980007
-92.847092 -74.893753 8.8580427
-93.392731 -74.554771 8.877223
-93.17572 -74.692001 8.8698568
-93.803398 -74.292999 8.8817997
-93.631683 -74.403625 8.8717499
-94.108803 -74.078468 8.8998995
-93.934502 -74.191505 8.9263334
-94.575729 -73.801231 8.8696327
-94.393669 -73.914337 8.8956671
-94.170998 -73.987999 8.9770002
-95.061996 -73.514 8.7905006
-94.860588 -73.6325 8.8580008
-94.632004 -73.699997 8.9729996
-95.360924 -73.310501 8.8465004
-95.171501 -73.420357 8.8606424
-95.82225 -73.030502 8.9162502
-95.627953 -73.133865 8.8801327
-96.125 -72.820206 8.9052
-95.938301 -72.930199 8.8987999
-96.575722 -72.559639 8.8776426
-96.375572 -72.677002 8.8432856
-96.249496 -72.723495 8.9470005
-97.052002 -72.267502 8.8745003
-96.883743 -72.366875 8.8607502
-96.744667 -72.456673 8.8586664
-97.435997 -72.022331 8.8476667
-97.119995 -72.217003 8.8503332
-97.839005 -71.769501 8.8772507
-97.653549 -71.884781 8.8546667
-98.132339 -71.584442 8.8557777
-97.941124 -71.709 8.8409996
-98.558327 -71.318169 8.8586664
-98.365494 -71.440002 8.8682499
-98.845093 -71.137299 8.8910999
-98.695374 -71.23175 8.8936253
-99.430168 -70.773506 8.8788338
-99.819298 -70.525597 8.8845997
-99.589806 -70.669556 8.8921871
-99.925995 -70.459999 8.882
-86.594002 -78.809998 9.1025
-86.422569 -78.916 9.1205702
-87.055664 -78.519997 9.1536665
-86.885834 -78.626839 9.1257782
-86.702332 -78.741997 9.1293325
-87.359589 -78.32785 9.1517782
-87.171165 -78.448341 9.1504993
-87.829208 -78.035103 9.1417999
-87.634552 -78.158562 9.1220007
-88.112724 -77.859665 9.1237783
-87.92675 -77.974747 9.116251
-89.385292 -77.060928 9.1342859
-89.208336 -77.170998 9.1433334
-89.793503 -76.801796 9.1243992
-89.61631 -76.911751 9.14925
-90.091141 -76.583138 9.1610003
-89.957748 -76.699753 9.1159992
-90.576126 -76.28788 9.1721249
-90.376778 -76.387497 9.1444435
-90.228996 -76.459999 9.1309996
-91.009003 -76.041336 9.1360006
-90.870224 -76.125351 9.111001
-90.649658 -76.208672 9.1133337
-91.390282 -75.787575 9.1258574
-91.153893 -75.940773 9.1263704
-91.819 -75.524498 9.0784998
-91.644997 -75.60231 9.1263123
-91.473 -75.670502 9.1830006
-92.125 -75.318832 9.0949163
-91.893089 -75.444084 9.1127501
-92.561752 -75.033127 9.1141253
-92.401062 -75.131813 9.1355
-92.222328 -75.203003 9.1256666
-93.017998 -74.779335 9.1516676
-92.852135 -74.849136 9.1450014
-92.647873 -74.954002 9.1313753
-93.32988 -74.561501 9.1344995
-93.120361 -74.662926 9.1087141
-93.790993 -74.291168 9.1291666
-93.600876 -74.40625 9.1211252
-93.454002 -74.489502 9.0839996
-94.108994 -74.085197 9.1211996
-93.888626 -74.182693 9.1259995
-94.551498 -73.757004 9.0995007
-94.375099 -73.893913 9.1280909
-94.178673 -73.994331 9.1456671
-95.053001 -73.507004 9.0010004
-94.894646 -73.5765 9.1215715
-94.647003 -73.69767 9.1394997
-95.375877 -73.290131 9.1351252
-95.161377 -73.395752 9.1104374
-94.995003 -73.462997 9.1630001
-95.812996 -73.023666 9.1470003
-95.613113 -73.113503 9.1212778
-95.436005 -73.214005 9.0540009
-96.120499 -72.835999 9.0804996
-95.928337 -72.911171 9.0893326
-96.575165 -72.549454 9.1199579
-96.348335 -72.688744 9.11975
-96.157379 -72.735001 9.1206255
-97.044746 -72.262001 9.1070004
-96.888649 -72.357719 9.1111431
-96.709496 -72.466499 9.1016665
-97.428497 -72.01725 9.0809994
-97.117004 -72.214996 9.08325
-97.851501 -71.752869 9.1116247
-97.648178 -71.879219 9.1169291
-98.126503 -71.580505 9.0967493
-97.973328 -71.677338 9.1619997
-98.550621 -71.313248 9.0828743
-98.35717 -71.434669 9.0927505
-98.86084 -71.117668 9.1571665
-98.705666 -71.214333 9.142333
-99.443001 -70.750999 9.0830002
-99.795998 -70.531601 9.1272001
-99.584213 -70.662209 9.1342144
-99.441002 -70.749001 9.1700001
-99.896996 -70.464249 9.1760006
-86.60508 -78.791748 9.3590002
-86.396126 -78.922989 9.366312
-87.050751 -78.515747 9.3794994
-86.869415 -78.628235 9.3536367
-87.357262 -78.320084 9.4072504
-87.160774 -78.445442 9.374444
-87.8069 -78.039391 9.3645992
-87.623924 -78.153641 9.3933573
-88.15612 -77.824127 9.3577499
-87.959328 -77.945335 9.3416662
-89.013 -77.285004 9.4359999
-89.412003 -77.035248 9.3588009
-89.201752 -77.165878 9.4115
-89.833748 -76.770493 9.3581247
-89.620712 -76.903236 9.3748331
-90.077713 -76.578812 9.3968
-89.969749 -76.681999 9.4127502
-90.569 -76.268997 9.3387499
-90.352577 -76.39386 9.4205713
-90.130501 -76.498505 9.4419994
-91.001495 -76.035507 9.3450003
-90.889801 -76.104004 9.3874006
-90.674446 -76.167191 9.379096
-91.394066 -75.773338 9.3699446
-91.16114 -75.915932 9.3745708
-91.811996 -75.520004 9.4109993
-91.636383 -75.622253 9.3980007
-91.469498 -75.668503 9.3479996
-92.114311 -75.331619 9.3686247
-91.889572 -75.447281 9.3447132
-92.602798 -75.029198 9.3967991
-92.369499 -75.159248 9.413125
-92.249496 -75.179001 9.2950001
-93.035339 -74.758003 9.4543343
-92.871964 -74.830544 9.3783331
-92.706505 -74.92617 9.3175001
-93.321167 -74.559334 9.3761673
-93.181007 -74.666283 9.3613577
-93.785667 -74.287331 9.3953333
-93.596497 -74.390495 9.3785
-93.421631 -74.490128 9.3407497
-94.117615 -74.079247 9.4063053
-93.948624 -74.184624 9.4122505
-93.748001 -74.238495 9.3625002
-94.542 -73.802628 9.4134998
-94.356834 -73.922165 9.4188337
-94.181999 -73.997002 9.316
-95.044998 -73.501999 9.335
-94.870682 -73.587677 9.3584366
-94.695801 -73.688904 9.3872013
-95.349403 -73.3116 9.369401
-95.147202 -73.418999 9.3425999
-95.806244 -73.019501 9.4215002
-95.622169 -73.138832 9.3760557
-95.449669 -73.24234 9.4560003
-96.103371 -72.838379 9.3798752
-95.924995 -72.952339 9.3713331
-96.570755 -72.541748 9.3892498
-96.394043 -72.656639 9.3628178
-97.035339 -72.255669 9.3393335
-96.898865 -72.343361 9.3489723
-96.689842 -72.471092 9.3648338
-97.420006 -72.01133 9.3556662
-97.107666 -72.208336 9.359333
-97.638374 -71.876244 9.3730621
-98.096657 -71.58886 9.3576937
-97.892799 -71.7174 9.3570004
-98.543755 -71.308167 9.3623333
-98.350166 -71.430008 9.3605003
-98.85125 -71.111252 9.3809996
-98.698128 -71.209373 9.397625
-99.754997 -70.545998 9.3210001
-99.642036 -70.615303 9.3965664
-99.43766 -70.747002 9.3409996
-99.871124 -70.470627 9.3942499
-86.254501 -79.005493 9.5955
-86.19725 -79.036247 9.66325
-86.584404 -78.793007 9.6320667
-86.427498 -78.892097 9.6219501
-87.039665 -78.50666 9.6456671
-86.854752 -78.624542 9.6398335
-87.322136 -78.331642 9.6339998
-87.155495 -78.435005 9.6429996
-87.808006 -78.029335 9.6604996
-87.637856 -78.135719 9.6134281
-87.460007 -78.245331 9.6463337
-88.129257 -77.827003 9.6366882
-87.953377 -77.93988 9.6086254
-89.046501 -77.25425 9.6161251
-89.382408 -77.041893 9.6364002
-89.194672 -77.1605 9.6393328
-89.658119 -76.869659 9.6310005
-90.09343 -76.593857 9.6588573
-89.91935 -76.705605 9.6197996
-90.557335 -76.277 9.6759996
-90.389832 -76.357826 9.6419449
-90.192169 -76.454834 9.5823336
-90.865875 -76.106918 9.6225843
-90.616249 -76.2005 9.6000004
-91.382095 -75.786812 9.6441898
-91.122612 -75.949196 9.6323328
-91.810158 -75.518837 9.6330004
-91.631409 -75.629501 9.6316366
-92.107826 -75.333916 9.5991659
-91.922371 -75.451752 9.586875
-92.590004 -75.029747 9.6367502
-92.380638 -75.161552 9.6386366
-92.891876 -74.842506 9.6192503
-92.737328 -74.934998 9.6446657
-93.349167 -74.555923 9.5945835
-93.127853 -74.692856 9.6167145
-93.795258 -74.276253 9.5777502
-93.607666 -74.389351 9.6517391
-93.4505 -74.487503 9.5885
-94.132111 -74.062996 9.6451111
-93.924706 -74.188423 9.6579285
-94.543335 -73.803833 9.6446676
-94.366753 -73.917374 9.6193743
-94.900146 -73.581787 9.6277857
-94.701912 -73.704247 9.6427498
-95.303879 -73.330872 9.5891247
-95.115662 -73.447838 9.5951672
-95.802505 -73.016998 9.6100006
-95.656372 -73.10463 9.6188745
-95.470001 -73.224335 9.6411667
-96.105621 -72.82119 9.6219378
-95.893066 -72.950996 9.646143
-96.560333 -72.534004 9.6656675
-96.374878 -72.657631 9.5976877
-96.221001 -72.704002 9.7480001
-97.028999 -72.251495 9.552
-96.878593 -72.342247 9.6317501
-96.682831 -72.466331 9.6329165
-97.416504 -72.009003 9.5685005
-97.089668 -72.212669 9.6099997
-97.795502 -71.764999 9.5550003
-97.633003 -71.854561 9.6186666
-97.449005 -71.960838 9.6248331
-98.087906 -71.574196 9.6029997
-97.890854 -71.682144 9.626358
-98.554245 -71.290749 9.6087494
-98.379692 -71.385376 9.6296253
-98.207336 -71.468994 9.6839991
-98.86834 -71.088501 9.6583328
-98.689339 -71.203835 9.652833
-99.653839 -70.598541 9.6607399
-99.427002 -70.740494 9.618
-99.872757 -70.460251 9.6217499
-86.537506 -78.810745 9.8887501
-86.389168 -78.903328 9.8860826
-86.242004 -78.994751 9.9032497
-87.0345 -78.502502 9.9125004
-86.847382 -78.617554 9.8753338
-86.647331 -78.745171 9.8525
-87.32103 -78.322266 9.8683672
-87.147003 -78.427872 9.9099998
-87.763748 -78.0495 9.8894997
-87.614189 -78.143188 9.8758125
-87.440498 -78.247498 9.9077501
-88.139503 -77.808716 9.8725719
-87.915077 -77.950005 9.8784161
-88.268997 -77.719002 9.9350004
-89.042999 -77.251495 9.7614994
-88.883369 -77.343636 9.8744545
-89.355797 -77.050797 9.8566999
-89.150505 -77.17675 9.8977499
-89.62294 -76.863312 9.8909369
-89.439499 -76.997002 9.8775005
-90.104904 -76.562103 9.8892002
-89.902077 -76.679909 9.8924999
-90.544006 -76.283669 9.8959999
-90.356995 -76.398643 9.9027863
-90.856499 -76.091805 9.8882494
-90.670998 -76.182426 9.8657503
-91.359756 -75.790756 9.9174995
-91.164932 -75.911507 9.9007502
-91.632622 -75.591957 9.8951902
-91.451126 -75.710129 9.9212503
-92.109169 -75.29866 9.8592501
-91.873688 -75.445435 9.8685637
-92.571602 -75.045601 9.9176006
-92.345917 -75.159668 9.866416
-92.235504 -75.216003 9.9209995
-92.869392 -74.844391 9.8657789
-92.644005 -74.946167 9.8945007
-93.334503 -74.553497 9.8759995
-93.148544 -74.669647 9.8713331
-93.809494 -74.315498 9.9584999
-93.582664 -74.397331 9.8751669
-93.433327 -74.456169 9.8660002
-94.106346 -74.078423 9.9103336
-93.894096 -74.185593 9.8805008
-94.534622 -73.797501 9.9279995
-94.367493 -73.904915 9.8684998
-94.208 -73.964005 9.8479996
-94.867867 -73.592377 9.8651867
-94.67334 -73.699997 9.8785009
-95.308212 -73.303146 9.8668575
-95.112679 -73.439056 9.8448124
-95.819878 -73.058502 9.9498749
-95.602646 -73.153358 9.8645716
-95.419006 -73.203003 9.8129997
-96.293999 -72.759003 9.8829994
-96.134369 -72.837006 9.9003744
-95.92379 -72.931999 9.8519993
-96.535004 -72.515999 9.8745003
-96.408997 -72.629669 9.8632221
-96.85894 -72.335815 9.8702497
-96.673622 -72.460121 9.9106255
-97.553001 -72.001999 9.9619999
-97.446999 -72.032501 9.9115
-97.070496 -72.215492 9.8610001
-97.803253 -71.796494 9.8587503
-97.631371 -71.905243 9.8227501
-97.394997 -71.992996 9.7779999
-98.306496 -71.525002 9.9085007
-98.103302 -71.628296 9.8458996
-97.9272 -71.711403 9.8374004
-98.563751 -71.272255 9.9122505
-98.40567 -71.364754 9.9088335
-98.850998 -71.088928 9.8650723
-98.643997 -71.222504 9.8797493
-99.647247 -70.589668 9.8835831
-86.5578 -78.788994 10.124701
-86.399788 -78.889282 10.115357
-86.239998 -78.992996 10.087999
-86.87365 -78.591805 10.13505
-86.698494 -78.702507 10.116834
-87.344429 -78.297142 10.127858
-87.121895 -78.433884 10.146667
-87.871506 -78.027496 10.198
-87.635864 -78.092323 10.131364
-87.469002 -78.218254 10.087
-88.089577 -77.857285 10.157572
-87.91333 -77.936111 10.098778
-88.258331 -77.748672 10.158667
-88.171501 -77.748505 10.0575
-89.326172 -77.057335 10.150833
-89.155571 -77.166862 10.115286
-89.792999 -76.820999 10.1725
-89.589058 -76.861168 10.128277
-89.430664 -76.989998 10.1525
-90.250999 -76.541 10.2295
-90.129776 -76.617287 10.122928
-89.927872 -76.704376 10.092625
-90.600128 -76.321747 10.113125
-90.403 -76.4496 10.131399
-90.888435 -76.057701 10.115667
-90.729805 -76.196999 10.117599
-91.331245 -75.795502 10.1465
-91.128555 -75.923378 10.149555
-91.807007 -75.569504 10.09375
-91.636597 -75.634407 10.1206
-91.444832 -75.70533 10.138833
-92.285004 -75.257004 10.092501
-92.139061 -75.375999 10.099786
-91.950249 -75.475502 10.06975
-92.600853 -75.061287 10.125
-92.395248 -75.193756 10.05425
-92.897751 -74.814308 10.122625
-92.697746 -74.904495 10.14325
-93.848 -74.589996 10.234
-93.327171 -74.548248 10.133916
-93.140686 -74.665871 10.126688
-93.821396 -74.319298 10.1349
-93.604202 -74.440598 10.1192
-93.403999 -74.451004 10.0865
-94.276001 -74.072998 10.083
-94.08287 -74.143745 10.1305
-93.941002 -74.234001 10.061
-94.540001 -73.828247 10.12825
-94.363503 -73.982498 10.052999
-94.86483 -73.584999 10.098667
-94.590195 -73.7174 10.1682
-95.363243 -73.268379 10.1
-95.146835 -73.40538 10.115404
-95.791664 -73.118004 10.154333
-95.649666 -73.217667 10.144334
-96.170677 -72.875999 10.144667
-95.950005 -72.972832 10.136
-96.515999 -72.502747 10.105249
-96.447418 -72.607414 10.13325
-96.842339 -72.324669 10.092999
-96.68 -72.446999 10.103
-97.592003 -72.030998 10.048
-97.065498 -72.2285 10.0275
-97.817993 -71.832748 10.078751
-97.63134 -71.891663 10.109668
-98.587997 -71.712997 10.179
-98.412003 -71.584999 10.075
-97.906998 -71.741997 10.0745
-98.556335 -71.267998 10.146333
-98.403381 -71.364006 10.125688
-98.876266 -71.062965 10.125234
-98.660583 -71.201088 10.125999
-99.646332 -70.581337 10.118083
-86.564842 -78.774841 10.344277
-86.358002 -78.904373 10.363063
-86.879921 -78.576332 10.4005
-86.703339 -78.688423 10.351417
-87.3535 -78.281998 10.41025
-87.159828 -78.401649 10.388465
-87.863251 -78.020996 10.38175
-87.625999 -78.093666 10.384556
-87.463005 -78.213661 10.355
-88.305 -77.752502 10.313499
-88.097008 -77.901337 10.315
-87.938004 -77.987 10.253
-88.297997 -77.746002 10.435
-89.317749 -77.050499 10.419125
-89.130188 -77.173317 10.369562
-89.8694 -76.796196 10.383101
-89.559578 -76.879585 10.363833
-89.436661 -76.977669 10.388834
-90.259003 -76.528336 10.337667
-90.21167 -76.604004 10.4725
-90.610001 -76.358002 10.404
-90.45575 -76.450256 10.384001
-90.876068 -76.054375 10.379251
-90.729294 -76.175201 10.3821
-91.297806 -75.806503 10.377801
-91.116081 -75.919998 10.409416
-91.595703 -75.621597 10.3831
-91.441124 -75.703125 10.409875
-92.164665 -75.327843 10.374833
-92.601501 -75.093498 10.3995
-92.875267 -74.81823 10.3602
-92.679504 -74.899803 10.373899
-93.772003 -74.529999 10.396
-93.316116 -74.540001 10.409125
-93.123909 -74.661995 10.383167
-93.856796 -74.358597 10.4004
-93.531998 -74.448997 10.41425
-93.396332 -74.445831 10.365
-94.273338 -74.071663 10.333667
-94.044998 -74.153839 10.402334
-94.8825 -73.560852 10.348642
-95.845001 -73.478996 10.346
-95.318748 -73.263245 10.3385
-95.166939 -73.38237 10.373875
-95.779999 -73.135254 10.3825
-95.635498 -73.207001 10.3545
-95.407997 -73.246506 10.3805
-96.313004 -72.774506 10.351999
-96.168747 -72.875244 10.42
-96.444992 -72.606003 10.415
-96.784248 -72.361496 10.40125
-96.579414 -72.473503 10.350583
-98.112999 -71.68 10.384
-97.904495 -71.740501 10.4165
-98.548248 -71.262253 10.379999
-98.39444 -71.344498 10.3765
-98.881149 -71.050858 10.356714
-98.686897 -71.172592 10.3641
-99.638885 -70.576447 10.345666
-86.552223 -78.769829 10.653389
-86.359833 -78.893639 10.598472
-86.856316 -78.582436 10.632374
-86.683167 -78.689499 10.582
-87.348755 -78.273621 10.621208
-87.151497 -78.397499 10.588667
-87.859673 -78.018333 10.649667
-87.621048 -78.08989 10.604723
-87.454498 -78.206749 10.58025
-88.109413 -77.910835 10.65825
-87.706001 -78 10.73
-88.296249 -77.744751 10.5805
-88.894997 -77.285492 10.613166
-89.310341 -77.04467 10.646667
-89.111504 -77.171913 10.620166
-89.827194 -76.802498 10.6207
-89.584663 -76.846329 10.646999
-89.457436 -76.952728 10.656722
-90.278328 -76.505669 10.634999
-90.1548 -76.602997 10.6672
-90.595665 -76.346672 10.651
-90.452332 -76.44767 10.655666
-90.864998 -76.047569 10.612287
-90.7258 -76.194992 10.617599
-91.300491 -75.798126 10.5925
-91.107452 -75.913551 10.651668
-91.829002 -75.536003 10.624
-91.617203 -75.6194 10.6196
-91.432076 -75.704338 10.64025
-92.418999 -75.271004 10.654
-92.159508 -75.324669 10.63275
-92.640663 -75.019997 10.642
-92.367996 -75.230003 10.732
-92.874496 -74.808403 10.6042
-92.681801 -74.882996 10.629199
-93.309258 -74.534584 10.635667
-93.102455 -74.663078 10.638041
-92.969002 -74.742996 10.697001
-93.883995 -74.293007 10.637668
-93.508499 -74.430496 10.602
-93.420677 -74.430672 10.632999
-94.514999 -74.051003 10.656
-94.263252 -74.063995 10.6075
-94.051666 -74.140671 10.651666
-93.999001 -74.174004 10.748
-94.897003 -73.541878 10.597125
-95.282501 -73.264 10.634667
-95.157234 -73.37748 10.618501
-95.787003 -73.115494 10.62
-95.375 -73.221748 10.60775
-96.303162 -72.803337 10.583
-96.164001 -72.872002 10.653666
-95.93766 -72.964333 10.643167
-96.451401 -72.601196 10.6118
-96.805992 -72.342796 10.628201
-96.647003 -72.441833 10.640667
-96.497253 -72.489502 10.612
-96.9515 -72.246994 10.6095
-98.081665 -71.657997 10.635333
-98.538666 -71.256668 10.657333
-98.385376 -71.352127 10.63125
-98.851418 -71.060501 10.595417
-98.656372 -71.181625 10.622624
-86.535507 -78.769417 10.897751
-86.37664 -78.869713 10.849
-86.887085 -78.552696 10.871888
-86.676498 -78.685501 10.878082
-87.312164 -78.282997 10.896667
-87.143387 -78.391312 10.862612
-87.852249 -78.012001 10.919001
-87.607826 -78.100922 10.865334
-87.43 -78.212997 10.87225
-88.098999 -77.901619 10.891375
-87.700996 -77.996002 10.9145
-88.291008 -77.741661 10.848332
-88.869858 -77.292992 10.829857
-89.302879 -77.039001 10.915751
-89.113945 -77.158249 10.8757
-88.968002 -77.248001 10.8805
-89.933998 -76.768005 10.82
-89.637917 -76.827339 10.898583
-89.438499 -76.952255 10.88575
-90.138626 -76.610374 10.898625
-90.58625 -76.3395 10.879
-90.356873 -76.469879 10.894625
-90.872993 -76.039635 10.866213
-90.730797 -76.177994 10.8822
-91.254997 -75.816498 10.809
-91.143555 -75.879005 10.910151
-90.952003 -75.997002 10.965
-91.848335 -75.552673 10.863999
-91.580399 -75.610199 10.8831
-91.413307 -75.705933 10.912312
-92.153122 -75.319748 10.908125
-92.633751 -75.014252 10.9135
-92.358498 -75.223251 10.8785
-92.849159 -74.811333 10.8405
-92.663902 -74.88829 10.8756
-93.299873 -74.527878 10.910749
-93.111336 -74.644417 10.912833
-92.96225 -74.737747 10.886
-93.877251 -74.28775 10.9115
-93.644997 -74.43 10.972
-93.416893 -74.421402 10.885401
-94.666664 -74.170998 10.841667
-94.064499 -74.114998 10.91825
-93.996002 -74.172501 10.872499
-94.857994 -73.553749 10.864624
-95.287003 -73.268494 10.9165
-95.134285 -73.379623 10.891334
-94.994499 -73.466003 10.8925
-95.355003 -73.207001 10.838333
-96.311668 -72.774666 10.860667
-96.155998 -72.865997 10.823
-95.929871 -72.959 10.918125
-96.442894 -72.615799 10.882501
-96.789497 -72.341125 10.875376
-96.668045 -72.414246 10.907875
-96.491669 -72.485664 10.846001
-97.097755 -72.146248 10.92175
-96.945999 -72.242996 10.907001
-97.845505 -71.751495 10.966499
-98.082001 -71.659256 10.9125
-97.85701 -71.742332 10.853
-98.532997 -71.252998 10.826
-98.371643 -71.342003 10.881286
-98.841446 -71.053886 10.858222
-98.62867 -71.189163 10.85075
-86.541084 -78.758499 11.100666
-86.852417 -78.562256 11.106667
-86.687881 -78.662994 11.154
-87.294998 -78.287003 11.093
-87.148445 -78.377106 11.136611
-86.995506 -78.470673 11.137333
-87.842323 -78.003998 11.145
-87.602432 -78.096565 11.088249
-87.4142 -78.215797 11.0913
-88.112198 -77.892006 11.1434
-87.998001 -77.806 11.135
-87.692329 -77.989006 11.140334
-88.2855 -77.737251 11.116751
-88.847878 -77.296371 11.109875
-89.295166 -77.032661 11.143333
-89.098915 -77.153915 11.143498
-88.924339 -77.242836 11.155167
-89.629311 -76.822754 11.150938
-89.437729 -76.939796 11.173667
-90.133331 -76.606171 11.147999
-90.600624 -76.338379 11.132
-90.317665 -76.471336 11.084
-90.811699 -76.053505 11.120099
-90.721207 -76.192398 11.116601
-91.134392 -75.876282 11.145611
-90.948502 -75.994507 11.087999
-91.850006 -75.554504 11.0865
-91.600601 -75.607399 11.1192
-91.408997 -75.702751 11.141251
-92.147423 -75.315582 11.133418
-91.990997 -75.455246 11.0925
-92.631004 -75.012337 11.143333
-92.396751 -75.225746 11.11775
-92.841492 -74.805252 11.1125
-92.669495 -74.883667 11.146168
-93.287209 -74.528999 11.134001
-93.105118 -74.639771 11.138057
-92.954674 -74.732666 11.157333
-93.600334 -74.394997 11.134
-93.418701 -74.412903 11.12
-94.472 -74.018997 11.072
-94.054375 -74.123375 11.18075
-93.897499 -74.199501 11.066999
-94.411499 -73.972 11.193
-94.828926 -73.560928 11.110144
-95.285004 -73.266998 11.0865
-95.143143 -73.36515 11.105927
-94.986748 -73.46125 11.08225
-95.5075 -73.222 11.114
-95.393005 -73.203163 11.154834
-96.308838 -72.772835 11.1295
-96.030502 -72.880005 11.2035
-95.934326 -72.945671 11.1505
-96.442505 -72.605827 11.137
-96.819 -72.314499 11.1245
-96.667213 -72.405334 11.143333
-96.485001 -72.481003 11.0785
-97.440498 -72.029999 11.190001
-97.116127 -72.119064 11.122437
-96.943779 -72.236115 11.127223
-97.248001 -71.997498 11.156
-98.314003 -71.617668 11.089333
-98.079498 -71.657501 11.105
-97.8395 -71.747833 11.135834
-98.375748 -71.332748 11.133312
-98.800514 -71.067795 11.108999
-98.588898 -71.201134 11.125166
-98.911003 -70.997749 11.084499
-99.578369 -70.5811 11.1131
-86.396141 -78.832214 11.40857
-86.859993 -78.547066 11.370937
-86.627182 -78.693626 11.363001
-87.286499 -78.280334 11.367667
-87.139336 -78.369331 11.410666
-86.985001 -78.461998 11.412001
-87.580803 -78.097374 11.359375
-87.398003 -78.213173 11.346833
-88.156998 -77.843002 11.384001
-87.822502 -77.986755 11.4115
-87.682251 -77.980499 11.40775
-88.28167 -77.734337 11.345333
-88.832001 -77.339996 11.345666
-89.287498 -77.026749 11.3505
-89.126678 -77.127754 11.397333
-88.908592 -77.235504 11.365999
-89.621574 -76.807861 11.399785
-89.42379 -76.940086 11.391667
-90.123123 -76.598747 11.396501
-90.586502 -76.3405 11.3585
-90.273003 -76.471497 11.369334
-90.249001 -76.482002 11.466
-90.819199 -76.038803 11.384
-90.727806 -76.176605 11.3821
-91.134445 -75.864555 11.388222
-90.940666 -75.989662 11.366166
-91.844666 -75.551163 11.365666
-91.559296 -75.593994 11.382601
-91.402313 -75.697998 11.412313
-92.140373 -75.310501 11.409249
-91.98867 -75.454323 11.363999
-92.585167 -75.043839 11.426499
-92.356247 -75.222748 11.3815
-92.833839 -74.79966 11.342334
-92.668121 -74.883118 11.39775
-93.157921 -74.596939 11.414556
-92.945496 -74.725746 11.387249
-93.593498 -74.389999 11.4065
-93.389206 -74.428467 11.379133
-94.074333 -74.09671 11.387208
-94.544006 -73.807999 11.37425
-94.832436 -73.549004 11.338143
-94.652298 -73.639603 11.411299
-95.282501 -73.265167 11.366833
-95.132378 -73.359436 11.378124
-94.967834 -73.462502 11.3535
-95.668999 -73.1315 11.443001
-95.3964 -73.199295 11.3612
-96.308998 -72.774002 11.456
-96.013 -72.867996 11.371
-95.899498 -72.920166 11.357667
-96.44075 -72.605377 11.412874
-96.851326 -72.28183 11.3535
-96.65625 -72.397911 11.404667
-96.473999 -72.473335 11.353333
-97.419006 -72.014999 11.356501
-97.129219 -72.099861 11.390429
-96.968002 -72.210495 11.4165
-97.800003 -71.772003 11.389
-97.602997 -71.942001 11.415
-97.396004 -71.998001 11.483
-97.239342 -71.991997 11.367
-98.196999 -71.585999 11.354
-97.849838 -71.720337 11.406334
-98.370186 -71.34269 11.382937
-98.821999 -71.041 11.4125
-98.631126 -71.166542 11.355124
-98.900337 -70.990662 11.362667
-99.600967 -70.558632 11.384601
-99.448746 -70.650253 11.414499
-86.360046 -78.846947 11.631701
-86.831085 -78.554413 11.610084
-86.620872 -78.681435 11.643312
-87.279999 -78.275002 11.5865
-87.122719 -78.370934 11.610857
-86.962502 -78.470116 11.645057
-87.610199 -78.0662 11.615499
-87.405373 -78.193542 11.607583
-88.153 -77.839996 11.738
-87.835838 -77.949501 11.6435
-87.679008 -77.978333 11.635334
-88.306496 -77.719833 11.638167
-88.830254 -77.339752 11.616
-89.140045 -77.106056 11.633287
-88.884163 -77.224663 11.662168
-89.809502 -76.767502 11.645
-89.586998 -76.810425 11.614572
-89.402672 -76.940163 11.654583
-90.193001 -76.556999 11.571
-90.639999 -76.281998 11.66
-90.311668 -76.441994 11.634999
-90.242004 -76.476997 11.587999
-90.800499 -76.034622 11.586374
-90.724159 -76.167671 11.6385
-91.261002 -75.768501 11.7485
-91.125778 -75.858276 11.626222
-90.948723 -75.967445 11.641278
-91.611 -75.575996 11.638667
-91.423813 -75.662125 11.625938
-92.122993 -75.319717 11.625572
-91.985001 -75.4515 11.5735
-92.592758 -75.033501 11.6285
-92.456329 -75.151337 11.656667
-92.826248 -74.793747 11.614124
-92.666664 -74.882004 11.649501
-93.15329 -74.590729 11.62825
-92.937996 -74.720337 11.66
-93.774002 -74.320999 11.722
-93.587669 -74.38633 11.637001
-93.387024 -74.418304 11.6415
-94.070602 -74.081009 11.642599
-94.585403 -73.851601 11.5988
-94.822838 -73.542168 11.632999
-94.659286 -73.625145 11.617715
-95.276672 -73.262001 11.634666
-95.119629 -73.35817 11.623417
-94.931725 -73.473717 11.6245
-95.661003 -73.125999 11.6965
-95.416397 -73.194496 11.6437
-96.025505 -72.841835 11.650833
-95.907753 -72.918747 11.677
-96.411293 -72.605713 11.657143
-96.116997 -72.737999 11.747
-96.829163 -72.284668 11.588333
-96.645439 -72.390221 11.651222
-96.467003 -72.468506 11.5855
-97.113609 -72.104721 11.640446
-96.937508 -72.212997 11.627
-97.610001 -71.814751 11.658
-97.394501 -71.926331 11.678
-97.231331 -71.986504 11.634833
-98.134247 -71.53875 11.613501
-97.874168 -71.632164 11.656501
-97.685669 -71.722664 11.695999
-98.351662 -71.330002 11.634444
-98.164001 -71.459503 11.671
-98.821999 -71.041 11.5835
-98.6371 -71.150894 11.621
-98.894493 -70.987167 11.633166
-99.559128 -70.574203 11.617001
-99.443665 -70.647331 11.649666
-99.834785 -70.398781 11.638944
-99.68 -70.497673 11.631
-86.381149 -78.821205 11.870899
-86.790604 -78.567001 11.8862
-86.601791 -78.681755 11.890249
-87.271339 -78.26767 11.8615
-87.116997 -78.361595 11.8797
-86.939499 -78.473 11.8955
-87.587997 -78.067398 11.877399
-87.398338 -78.187752 11.844083
-88.263 -77.833 11.766
-87.826874 -77.942497 11.890376
-87.671494 -77.972504 11.9035
-88.302391 -77.687401 11.8272
-88.830345 -77.340332 11.844334
-89.145561 -77.090172 11.906861
-88.875626 -77.217751 11.888999
-89.792 -76.752998 11.849334
-89.555 -76.812798 11.8881
-89.394585 -76.93425 11.892292
-90.029999 -76.529999 11.97
-89.940498 -76.604996 11.962
-89.650841 -76.73867 11.8605
-90.31163 -76.357376 11.9345
-90.192253 -76.465752 11.892124
-90.803993 -76.019669 11.837001
-90.667648 -76.132004 11.908214
-90.454002 -76.230003 11.969
-91.264084 -75.762581 11.9035
-91.105255 -75.860878 11.902375
-90.916222 -75.965225 11.924945
-91.605995 -75.535164 11.900668
-91.429436 -75.640747 11.883187
-92.101501 -75.299339 11.832
-91.885254 -75.373001 11.89975
-91.673004 -75.463501 11.96
-92.561996 -75.059494 11.8195
-92.366707 -75.064003 11.8905
-92.162498 -75.164749 11.94475
-92.816833 -74.786995 11.843666
-92.602669 -74.892754 11.906501
-92.446999 -74.973999 11.96
-93.143387 -74.583618 11.886763
-92.929504 -74.714493 11.88975
-93.563332 -74.297668 11.887166
-93.393173 -74.402954 11.911334
-94.068756 -74.044502 11.787251
-93.862 -74.112854 11.898929
-93.673332 -74.204338 11.906333
-94.556999 -73.766998 11.755
-94.329704 -73.809128 11.881249
-94.163612 -73.91111 11.903778
-94.811501 -73.533997 11.913
-94.646629 -73.61631 11.863812
-94.463249 -73.720253 11.872
-95.266495 -73.254997 11.8445
-95.109261 -73.34977 11.9203
-94.927338 -73.465324 11.855
-95.594666 -73.041161 11.8615
-95.377708 -73.15271 11.892428
-95.872925 -72.851646 11.870786
-95.685509 -72.96833 11.840833
-96.334274 -72.564011 11.9312
-96.131416 -72.674751 11.867916
-95.998001 -72.749001 11.909
-96.792999 -72.296669 11.845
-96.636414 -72.384087 11.890918
-96.464333 -72.467331 11.862
-97.259003 -72.008003 11.967
-97.082291 -72.11467 11.897959
-96.91375 -72.221581 11.874001
-97.565994 -71.785004 11.86275
-97.396568 -71.893219 11.904215
-97.224998 -71.982002 11.876
-98.031998 -71.514 11.931
-97.859207 -71.602646 11.884001
-97.674339 -71.714668 11.878499
-98.354698 -71.301102 11.890201
-98.144493 -71.413857 11.817572
-98.809334 -71.032829 11.868
-98.625435 -71.150063 11.878063
-98.499001 -71.231003 11.852
-98.934402 -70.954903 11.8854
-99.539581 -70.572838 11.914083
-99.435249 -70.641998 11.884251
-99.88372 -70.357391 11.888278
-99.696663 -70.473999 11.927334
-86.796295 -78.549789 12.113799
-86.611389 -78.66375 12.162453
-86.461998 -78.748505 12.248
-87.260498 -78.259171 12.135167
-87.113464 -78.351807 12.108167
-86.929367 -78.463875 12.101
-87.587753 -78.057129 12.087875
-87.388878 -78.180504 12.11175
-87.875336 -77.844749 12.104251
-87.692665 -77.952332 12.101334
-88.322998 -77.662003 12.012
-88.139496 -77.681679 12.117682
-88.795502 -77.281998 12.12475
-89.141205 -77.081932 12.137815
-88.875 -77.208603 12.1418
-89.548492 -76.818665 12.138832
-89.368118 -76.93856 12.148556
-90.019997 -76.521004 12.218
-89.903877 -76.562126 12.083376
-89.691811 -76.695747 12.096001
-90.335915 -76.303001 12.133
-90.122337 -76.43766 12.1375
-89.995003 -76.5 12.133
-90.801254 -76.037247 12.2225
-90.634865 -76.105644 12.104143
-90.444504 -76.222504 12.0905
-91.145576 -75.823502 12.153592
-90.893372 -75.966537 12.1136
-91.588203 -75.537735 12.158267
-91.407715 -75.655418 12.124857
-92.016006 -75.268997 12.153999
-91.862999 -75.348495 12.089876
-91.668503 -75.460007 12.0435
-92.354599 -75.051003 12.1244
-92.164886 -75.168671 12.134889
-92.806122 -74.779251 12.094875
-92.59893 -74.89772 12.133857
-92.455002 -74.979996 12.086
-93.154289 -74.567642 12.112572
-92.950798 -74.689201 12.1746
-93.554169 -74.308327 12.135417
-93.378876 -74.423378 12.130626
-94.04834 -74.004662 12.165668
-93.871407 -74.117203 12.1355
-93.696678 -74.223 12.134334
-94.310333 -73.839836 12.151
-94.149498 -73.935005 12.1276
-94.805336 -73.529663 12.123666
-94.655289 -73.623421 12.118357
-94.463593 -73.738335 12.11075
-95.107002 -73.340996 12.136222
-94.919632 -73.460251 12.086125
-95.599503 -73.038696 12.1343
-95.361885 -73.182663 12.146611
-95.877342 -72.86216 12.121917
-95.744675 -72.943672 12.148334
-96.332115 -72.576881 12.147556
-96.12458 -72.707001 12.108749
-96.7845 -72.291 12.12075
-96.645935 -72.378311 12.143813
-96.485329 -72.483665 12.133834
-97.253998 -72.003998 12.049
-97.101997 -72.092499 12.146688
-96.907166 -72.217499 12.135501
-97.608406 -71.778297 12.1417
-97.395576 -71.908791 12.149072
-97.246002 -71.999001 12.22
-98.030998 -71.514496 12.08
-97.87011 -71.611786 12.150111
-97.712669 -71.710335 12.147334
-98.328056 -71.324944 12.114278
-98.141174 -71.443169 12.097334
-98.77401 -71.043999 12.141667
-98.624214 -71.139854 12.123357
-98.464996 -71.240662 12.156668
-98.916664 -70.952507 12.132333
-99.574989 -70.539001 12.138667
-99.472206 -70.608391 12.1354
-99.915092 -70.325493 12.142583
-99.702156 -70.46067 12.139
-86.816002 -78.523003 12.4075
-86.637047 -78.635071 12.417786
-86.459999 -78.747002 12.4135
-87.254997 -78.254997 12.41
-87.109329 -78.344772 12.357111
-86.922844 -78.458672 12.347
-87.58017 -78.05117 12.356667
-87.390076 -78.170219 12.355858
-88.05175 -77.75325 12.40625
-87.867455 -77.865448 12.3808
-87.679504 -77.980171 12.366
-88.266327 -77.612663 12.335334
-88.15937 -77.68663 12.389999
-89.132668 -77.077248 12.399333
-88.921875 -77.206497 12.429
-89.544373 -76.815872 12.4085
-89.360924 -76.933418 12.390918
-90.018997 -76.520996 12.407749
-89.883881 -76.605309 12.368397
-89.693916 -76.723831 12.351334
-90.353256 -76.308243 12.408
-90.17765 -76.419289 12.391001
-90.803795 -76.028198 12.3842
-90.604698 -76.153702 12.38405
-90.463501 -76.239746 12.40675
-91.118813 -75.829399 12.4125
-90.946915 -75.935585 12.414083
-91.580727 -75.544273 12.377889
-91.35997 -75.679466 12.397768
-92.014 -75.267998 12.281
-91.869614 -75.360245 12.366562
-91.680885 -75.477112 12.37289
-92.359879 -75.055756 12.347626
-92.158142 -75.180214 12.407917
-92.782501 -74.790001 12.32825
-92.591591 -74.908081 12.403292
-92.463661 -74.987831 12.367001
-93.131813 -74.57119 12.367063
-92.915993 -74.704002 12.386001
-93.550003 -74.306244 12.4125
-93.353867 -74.431786 12.382857
-94.042999 -74.000999 12.419
-93.894356 -74.094498 12.362642
-93.697899 -74.217201 12.3867
-94.302872 -73.834625 12.404
-94.121178 -73.949562 12.379223
-94.772827 -73.541832 12.364499
-94.626503 -73.635506 12.367251
-94.453728 -73.746109 12.343888
-95.098167 -73.334587 12.409833
-94.912331 -73.454994 12.360667
-95.605797 -73.0233 12.3579
-95.397781 -73.153069 12.372857
-95.246506 -73.240997 12.415
-95.849991 -72.867523 12.355104
-96.362831 -72.548584 12.36
-96.140434 -72.684853 12.370857
-96.777992 -72.286995 12.353667
-96.617569 -72.386642 12.361856
-96.474503 -72.476501 12.416
-97.103783 -72.083641 12.379786
-96.898499 -72.211624 12.412
-97.574005 -71.792503 12.3445
-97.391701 -71.902199 12.3915
-97.239746 -71.995003 12.4115
-98.022003 -71.508003 12.357666
-97.862587 -71.606667 12.391416
-97.691498 -71.71183 12.389999
-98.284996 -71.345802 12.366
-98.134338 -71.439171 12.353001
-98.767998 -71.039673 12.342667
-98.625328 -71.125374 12.423
-98.445168 -71.243835 12.353
-98.90963 -70.948372 12.410251
-99.566498 -70.534248 12.41725
-99.452202 -70.615204 12.3532
-99.908295 -70.316917 12.396126
-99.694748 -70.455246 12.396251
-86.813248 -78.520508 12.59225
-86.642776 -78.625 12.623667
-86.45166 -78.740501 12.631667
-87.104164 -78.340919 12.584167
-86.918755 -78.456001 12.59525
-87.573624 -78.045876 12.60375
-87.387352 -78.160866 12.631928
-87.246666 -78.248169 12.630333
-88.047997 -77.750999 12.552
-87.863602 -77.862808 12.637251
-87.677002 -77.9795 12.587
-88.263504 -77.611252 12.60475
-88.124001 -77.696632 12.6625
-89.136856 -77.063644 12.609428
-89.532799 -76.817795 12.6218
-89.363632 -76.923248 12.637501
-90.013664 -76.516998 12.635999
-89.873726 -76.6035 12.629271
-89.678993 -76.729668 12.557667
-90.349335 -76.305664 12.637
-90.153877 -76.426941 12.624687
-90.802338 -76.020668 12.573667
-90.634155 -76.125107 12.639451
-90.459999 -76.237663 12.635999
-91.110626 -75.826065 12.644062
-90.942505 -75.928123 12.636749
-91.566002 -75.541328 12.636666
-91.37191 -75.663361 12.631363
-91.858177 -75.36084 12.592751
-91.679092 -75.470299 12.6571
-92.346275 -75.051888 12.652333
-92.147415 -75.177505 12.642536
-92.753754 -74.796501 12.5825
-92.587746 -74.898964 12.644389
-92.458672 -74.984337 12.633334
-93.143715 -74.552574 12.613428
-92.909668 -74.699333 12.630334
-93.538589 -74.307999 12.618
-93.36438 -74.41275 12.633875
-93.886375 -74.088249 12.644624
-93.699501 -74.208 12.639501
-94.297333 -73.831169 12.656167
-94.113609 -73.944359 12.638973
-94.755943 -73.541275 12.642501
-94.613594 -73.632301 12.636301
-94.458252 -73.735672 12.6175
-95.111244 -73.319916 12.642751
-94.912399 -73.445511 12.615399
-95.552673 -73.045998 12.659333
-95.412804 -73.132492 12.5929
-95.242332 -73.238335 12.646333
-95.869904 -72.8452 12.628
-95.675369 -72.968002 12.608501
-96.350166 -72.540672 12.656667
-96.161537 -72.662216 12.622108
-96.773254 -72.283997 12.58725
-96.609573 -72.380203 12.6396
-96.466003 -72.470505 12.586
-97.105995 -72.069283 12.639572
-96.902992 -72.19883 12.648666
-97.573494 -71.783173 12.569333
-97.39225 -71.892418 12.615833
-97.233673 -71.991333 12.645667
-98.014 -71.502998 12.59225
-97.84507 -71.607498 12.644062
-97.678497 -71.711502 12.660251
-98.360374 -71.285492 12.61425
-98.173805 -71.40181 12.617812
-98.641724 -71.106667 12.644723
-98.472832 -71.213669 12.633667
-98.900505 -70.942497 12.645833
-99.559669 -70.529663 12.652667
-99.456497 -70.598801 12.641299
-99.884285 -70.324074 12.628572
-99.685158 -70.449669 12.6535
-86.806335 -78.515327 12.859333
-86.651695 -78.611404 12.887596
-86.447998 -78.737503 12.907
-87.114662 -78.323586 12.851998
-86.911583 -78.450417 12.849584
-87.567879 -78.041748 12.851376
-87.4179 -78.1343 12.8569
-87.239502 -78.242996 12.9045
-87.879143 -77.843857 12.90135
-87.689377 -77.961876 12.885124
-88.25634 -77.605835 12.845166
-88.091812 -77.708939 12.894438
-89.131935 -77.058937 12.876249
-89.57 -76.784508 12.866501
-89.348061 -76.923012 12.891454
-90.003494 -76.509003 12.884501
-89.857925 -76.602577 12.865287
-89.671623 -76.719749 12.876375
-90.317093 -76.313293 12.9009
-90.142296 -76.426003 12.878799
-90.822998 -76.002998 12.822001
-90.649696 -76.106911 12.891667
-90.450249 -76.230255 12.906
-91.124428 -75.808495 12.879643
-90.913101 -75.939194 12.881701
-91.557999 -75.535995 12.9095
-91.385994 -75.642334 12.896778
-91.854889 -75.350548 12.856778
-91.670883 -75.464249 12.912375
-92.349503 -75.039337 12.903084
-92.142273 -75.168419 12.909916
-92.642891 -74.855057 12.889444
-92.447998 -74.976501 12.90425
-93.111076 -74.565498 12.854928
-92.883423 -74.705498 12.870334
-93.5467 -74.293503 12.8759
-93.343346 -74.416931 12.891642
-93.192001 -74.5 12.984
-93.864365 -74.091942 12.876812
-93.677673 -74.209671 12.890667
-94.309006 -73.813004 12.889999
-94.111778 -73.938614 12.862333
-94.783997 -73.514999 12.969
-94.626549 -73.612381 12.876715
-94.440834 -73.731667 12.840167
-95.102753 -73.313873 12.917313
-94.889793 -73.448593 12.882001
-95.542496 -73.03875 12.8915
-95.411919 -73.123253 12.843333
-95.234497 -73.23275 12.87825
-95.863495 -72.8405 12.847501
-95.659248 -72.969376 12.833875
-96.337837 -72.540169 12.882084
-96.132187 -72.668747 12.863937
-96.760674 -72.27533 12.862332
-96.580299 -72.388 12.859799
-96.458672 -72.465492 12.868
-97.116005 -72.053375 12.8935
-96.896172 -72.190125 12.900499
-97.534332 -71.792 12.858334
-97.385338 -71.887886 12.842666
-97.222748 -71.983505 12.921249
-98.010498 -71.501495 12.8275
-97.859566 -71.590714 12.863214
-97.647202 -71.7239 12.8617
-98.352333 -71.280495 12.849168
-98.139061 -71.41243 12.8915
-98.778 -71.013504 12.88725
-98.619835 -71.109001 12.888084
-98.464005 -71.207504 12.919001
-98.89238 -70.937004 12.880125
-99.549744 -70.523254 12.888
-99.46167 -70.596336 12.839001
-99.859627 -70.32869 12.85175
-99.674133 -70.442505 12.877501
-86.761246 -78.532249 13.08975
-86.601158 -78.632248 13.142415
-86.442001 -78.73275 13.091
-87.108543 -78.318665 13.088959
-86.895897 -78.4468 13.1284
-87.561005 -78.036507 13.098667
-87.385864 -78.146042 13.133533
-87.235252 -78.239998 13.091
-87.901054 -77.818054 13.137028
-87.70108 -77.943169 13.135418
-88.252998 -77.603996 13.163
-88.138939 -77.669563 13.151251
-89.10833 -77.06575 13.110667
-89.560501 -76.776505 13.087999
-89.363251 -76.903435 13.132875
-90.001999 -76.508003 13.05
-89.894089 -76.570801 13.1166
-89.679604 -76.703903 13.125898
-90.315506 -76.306374 13.0905
-90.13192 -76.421242 13.151619
-90.647484 -76.088226 13.137908
-90.442001 -76.223999 13.093
-91.095314 -75.814751 13.133999
-90.910202 -75.930702 13.122101
-91.550011 -75.530334 13.138333
-91.356369 -75.652092 13.131726
-91.88694 -75.324936 13.084001
-91.673805 -75.456993 13.112999
-92.33725 -75.039497 13.11025
-92.145004 -75.155998 13.129876
-91.972 -75.236496 13.239
-92.622955 -74.851799 13.126849
-92.448669 -74.960167 13.136666
-93.077667 -74.570335 13.132
-92.903793 -74.680855 13.130072
-93.566498 -74.267998 13.0895
-93.358849 -74.390648 13.1527
-93.189674 -74.499001 13.153333
-93.840141 -74.083366 13.132357
-93.615494 -74.212128 13.157125
-94.314331 -73.773003 13.164166
-94.157654 -73.874939 13.144655
-93.970253 -73.971252 13.209499
-94.776001 -73.510002 13.177999
-94.628807 -73.585999 13.129937
-94.416664 -73.707451 13.128445
-95.113335 -73.293999 13.147
-94.93457 -73.408142 13.1155
-95.519501 -73.0215 13.122499
-95.365532 -73.121254 13.132416
-95.222328 -73.224335 13.152333
-95.855446 -72.80983 13.096305
-95.648376 -72.931213 13.127209
-96.301666 -72.538841 13.078
-96.107002 -72.655571 13.123428
-95.957001 -72.722 13.177
-96.753494 -72.270996 13.0765
-96.640869 -72.339493 13.121313
-96.428856 -72.444572 13.133
-97.115898 -72.043404 13.132199
-96.884598 -72.190002 13.1365
-97.610748 -71.793503 13.21725
-97.415344 -71.858833 13.101583
-97.224831 -71.949165 13.1605
-98.033997 -71.519997 13.214
-97.891495 -71.576996 13.113
-97.654701 -71.699905 13.074501
-98.296837 -71.328163 13.155167
