# .PCD v0.7 - Point Cloud Data file format
VERSION 0.7
FIELDS x y z
SIZE 4 4 4
TYPE F F F
COUNT 1 1 1
WIDTH 99
HEIGHT 1
VIEWPOINT -18.2321 96.2205 -1.35163 -0.354149 -0.00701479 0.0211809 0.934923
POINTS 99
DATA ascii
97.867996 153.414 40.785
97.773003 153.50101 40.778999
91.738998 155.056 40.946999
90.084 155.47099 40.998001
102.825 151.645 41.004002
102.6375 151.9425 41.1525
102.447 152.004 41.124001
97.941002 153.27499 41.022999
91.209 154.65199 41.035
91.595001 154.561 41.077
90.889 154.85699 41.143002
91.117996 154.75 41.084999
91.695999 154.98599 41.192001
89.954002 155.13049 41.101501
90.720505 155.0685 41.066498
90.836998 155.01801 41.125
91.309998 155.07401 41.042999
91.710999 155.00999 41.063
89.855003 155.332 41.228001
90.038002 155.395 41.111
100.885 152.19299 41.478001
98.450996 152.923 41.402
98.063004 153.019 41.404999
94.738998 153.683 41.398998
94.619499 153.84201 41.422501
94.775002 153.974 41.324001
94.509003 154.028 41.319
91.621002 154.7345 41.3885
90.952003 154.965 41.368
91.136497 154.914 41.385002
91.380005 154.83499 41.363998
90.835495 155.0175 41.3195
91.120003 155.01601 41.272999
101.14301 151.685 41.6465
100.652 151.843 41.646999
101.207 151.98599 41.735001
100.846 152.13499 41.597
101.245 152.043 41.615002
101.288 152.105 41.500999
99.234001 152.25999 41.542
99.377502 152.35651 41.697502
98.195 152.748 41.742001
98.345001 152.68233 41.685333
99.292 152.563 41.583
98.091499 152.82651 41.677002
98.328499 152.84399 41.571503
94.623505 153.85001 41.558998
94.807999 153.795 41.557999
106.489 150.38699 41.970001
104.731 150.576 41.848
104.237 150.8795 41.933998
104.8195 150.92999 41.852501
104.088 151.00101 41.997002
104.425 151.03799 41.812
100.937 151.90834 41.882336
101.14266 151.82333 41.889332
107.13 149.951 42.09
106.5615 150.161 42.119999
106.731 150.29401 42.016998
104.394 150.87399 42.0485
104.761 150.847 42.028999
116.396 147.11099 42.462002
116.384 147.32001 42.389999
115.973 147.642 42.363998
116.038 147.522 42.486
113.565 147.95 42.375999
113.808 147.858 42.462002
115.108 147.82201 42.417
111.3945 148.66299 42.380001
111.921 148.608 42.48
111.173 148.79999 42.397499
111.3515 148.823 42.420998
117.097 146.94099 42.533001
115.97 147.214 42.534
116.324 147.245 42.507999
117.1725 147.149 42.620499
117.481 147.01601 42.619999
115.492 147.47 42.708
115.657 147.45799 42.688
115.8425 147.3775 42.711998
116.044 147.30901 42.700001
116.323 147.34451 42.586998
114.896 147.651 42.627998
115.378 147.528 42.68
116.021 147.50301 42.618999
113.904 147.98399 42.637001
114.1055 147.91849 42.66
114.778 147.8165 42.612999
115.063 147.76601 42.535
113.6425 148.05249 42.612999
113.8015 148.0575 42.584503
116.411 147.20799 42.860332
115.5745 147.4655 42.838001
115.8605 147.401 42.855499
116.11975 147.29776 42.864502
116.327 147.252 42.787998
115.33667 147.54565 42.896
115.688 147.50101 42.979
115.945 147.409 43.005001
