# .PCD v0.7 - Point Cloud Data file format
VERSION 0.7
FIELDS x y z
SIZE 4 4 4
TYPE F F F
COUNT 1 1 1
WIDTH 1666
HEIGHT 1
VIEWPOINT -18.2321 96.2205 -1.35163 -0.354149 -0.00701479 0.0211809 0.934923
POINTS 1666
DATA ascii
46.379192 10.11939 13.686778
46.567997 10.035 13.72725
45.491001 10.48 13.525
45.628002 10.365555 13.535445
45.923416 10.40525 13.648166
46.088715 10.358928 13.694499
46.257999 10.281 13.723
45.375935 10.655367 13.564135
45.653645 10.631333 13.655808
45.875999 10.535999 13.6945
44.936996 10.919001 13.5305
45.08704 10.85825 13.567876
45.386814 10.885834 13.680813
45.58596 10.809542 13.73325
44.693802 11.161901 13.5457
44.890667 11.1435 13.621666
45.119099 11.10479 13.695001
44.379917 11.435666 13.559916
44.634663 11.374279 13.631833
44.81805 11.333013 13.704405
43.972 11.736 13.542
44.113693 11.667213 13.57536
44.365486 11.619566 13.662714
44.563 11.5585 13.7295
43.704998 11.920334 13.542834
43.878193 11.8955 13.602084
44.085239 11.852138 13.673766
44.279999 11.785 13.734
43.416779 12.174667 13.561444
43.631981 12.13605 13.637799
43.802353 12.076938 13.687103
43.159668 12.36843 13.559625
43.36668 12.371924 13.662144
43.5755 12.268999 13.705
42.710667 12.7445 13.561834
42.889156 12.633084 13.58325
43.095573 12.571073 13.657832
43.253998 12.564751 13.74575
42.430164 12.919278 13.539889
42.61684 12.884849 13.623923
42.823471 12.810342 13.680795
42.14957 13.18078 13.573542
42.360008 13.102313 13.640055
42.548958 13.048876 13.712626
41.666496 13.4835 13.5375
41.889374 13.378098 13.57723
42.107269 13.297709 13.644625
41.399376 13.693975 13.5392
41.61834 13.649775 13.627527
40.993 13.984 13.522
41.15863 13.909584 13.564048
41.35413 13.876053 13.664245
41.512001 13.817667 13.728667
40.700836 14.246334 13.554334
40.878288 14.145087 13.592373
41.114826 14.080265 13.689112
40.39872 14.450617 13.553167
40.616978 14.38251 13.62947
40.802074 14.28945 13.664712
40.164455 14.678409 13.598039
40.375687 14.605601 13.676229
40.567749 14.519 13.697001
53.233002 4.9029999 13.792
52.945499 5.1843333 13.808
53.4105 5.1208 13.9188
53.6045 5.0896668 13.981833
52.626999 5.4440002 13.811501
52.904667 5.4106669 13.872666
53.118999 5.3816004 13.9384
53.345001 5.2735 13.960501
52.208 5.6230001 13.75
52.34425 5.6745 13.80825
52.639668 5.5583329 13.846667
52.836403 5.6570997 13.956202
53.048 5.546 13.98
51.904503 5.8859997 13.761499
52.109997 5.8561997 13.8138
52.434166 5.9095001 13.932167
52.62825 5.8077497 13.9515
51.87833 6.1147499 13.828
52.19796 6.1385832 13.953333
52.348999 6.0279999 13.9555
51.111 6.4850001 13.752
51.410004 6.322 13.763
51.598999 6.4305553 13.871166
51.891708 6.358417 13.946501
52.030502 6.3079996 13.99
51.145 6.6318002 13.7974
51.402374 6.6834583 13.92075
51.581085 6.5885835 13.941167
50.866779 6.8658891 13.804943
51.110798 6.8792 13.901502
51.276165 6.8223329 13.945999
50.585102 7.1456504 13.832599
50.855358 7.139667 13.94057
51.124001 7.0179996 13.9945
50.121838 7.3915 13.791499
50.350071 7.3978572 13.871072
50.591167 7.3547082 13.953834
49.898083 7.6220837 13.806666
50.087093 7.6474762 13.90713
50.319584 7.5580416 13.964918
49.483002 7.98 13.814
49.627117 7.8877144 13.83719
49.852741 7.8461428 13.92026
50.000999 7.8109999 13.984
49.177101 8.1656332 13.797167
49.385784 8.1456671 13.884953
49.572124 8.0732918 13.933146
48.906612 8.4250841 13.832166
49.106564 8.3507299 13.884625
49.307499 8.283 13.951
48.352669 8.7370014 13.770332
48.648067 8.6499624 13.851159
48.860527 8.5716333 13.911865
49.034 8.5235004 13.9785
48.166801 8.9315004 13.8007
48.383202 8.8648672 13.865883
47.675671 9.2383337 13.75
47.900799 9.1461668 13.808867
48.128181 9.1257496 13.917116
48.331497 9.0494995 13.983
47.456329 9.4363337 13.772334
47.662998 9.3787174 13.84679
47.854874 9.3330832 13.924583
47.15329 9.6966877 13.804021
47.380325 9.6382761 13.883718
47.565563 9.5646667 13.935334
46.881809 9.9311886 13.826561
47.12458 9.8452778 13.903502
47.260002 9.7783337 13.946333
46.441002 10.237 13.7915
47.000999 10 13.951
46.187248 10.450125 13.813313
46.360714 10.353648 13.865598
46.523415 10.282833 13.925
45.745667 10.742666 13.772667
45.919247 10.666867 13.840688
46.110207 10.560652 13.884974
45.477001 10.983 13.811
45.626595 10.908943 13.872381
45.80014 10.799042 13.907659
45.161957 11.198668 13.792708
44.930901 11.409249 13.857764
45.119759 11.323486 13.896322
44.453499 11.712 13.78
44.634365 11.646715 13.860956
44.844387 11.574835 13.941941
45.002998 11.504 13.956
44.169537 11.935917 13.817551
44.370277 11.843573 13.899196
44.567497 11.861 13.9855
43.741333 12.232666 13.771667
43.909851 12.14728 13.848619
44.073647 12.09139 13.894748
44.341499 12.017 13.979
43.435459 12.45373 13.851688
43.640636 12.353127 13.880397
43.839832 12.3051 13.924966
43.536125 12.58475 13.97275
42.665668 12.961383 13.957763
42.858822 12.862802 13.873414
42.372334 13.190339 13.89867
42.584984 13.068226 13.864182
42.286499 13.281167 13.804334
41.401512 13.935075 13.87639
40.965229 14.205605 13.904312
41.11116 14.147873 13.857164
41.35825 14.112409 13.903455
41.5872 14.058798 13.9518
40.581795 14.447666 13.868376
40.858944 14.391912 13.860019
41.117645 14.337833 13.926625
40.200558 14.743333 13.817945
40.351475 14.657876 13.865561
40.605705 14.612269 13.846334
40.827721 14.586116 13.92045
41.016998 14.509 13.98
40.220001 14.8 13.77
40.416809 14.819813 13.858313
40.540337 14.816833 13.969168
53.146 5.4990001 14.005
52.954498 5.6849999 14.0295
53.089752 5.6627855 14.134822
53.287445 5.5331116 14.128667
52.670265 5.9430761 14.101151
52.862377 5.8140345 14.116175
51.968502 6.4648337 14.08
52.144077 6.3803744 14.137171
51.689404 6.6884441 14.081597
51.874172 6.6026297 14.145557
52.142998 6.5430002 14.234501
51.385368 6.9147139 14.087667
51.616589 6.8323636 14.157313
51.771 6.8195 14.23675
50.964378 7.212625 14.080126
51.10675 7.1323638 14.117616
51.284801 7.0367999 14.145401
50.488998 7.4889998 14
50.635445 7.4449258 14.135815
50.850571 7.3460641 14.12524
51.099083 7.3062916 14.249084
50.387039 7.6475415 14.102125
50.588375 7.5749302 14.176694
49.722 7.9639373 14.247749
49.897057 7.9124947 14.127319
50.035542 7.7980833 14.106958
49.429794 8.2141151 14.169855
49.63533 8.1044321 14.129067
49.331764 8.302866 14.121117
48.847122 8.6215391 14.140385
49.057499 8.5171671 14.088667
48.158291 9.2067041 14.110765
47.882874 9.3918676 14.103836
48.100647 9.3651457 14.17802
48.303249 9.3011246 14.20475
47.429375 9.6923752 14.131625
47.608532 9.6247168 14.110767
47.821785 9.5763216 14.156107
48.074001 9.5609999 14.245
47.119934 9.8990335 14.121322
47.328541 9.8486509 14.131546
47.659084 9.7858334 14.213334
47.268997 10.110001 14.219
46.171459 10.464812 14.125079
46.360149 10.360086 14.095238
46.5354 10.2556 14.042999
45.907833 10.669798 14.105
46.101891 10.588194 14.130073
44.940567 11.4221 14.0836
44.619335 11.673666 14.045416
44.870407 11.652369 14.061741
44.127998 11.9765 14.035
44.372055 11.871428 14.070001
44.61097 11.877601 14.064034
44.834332 11.857333 14.172417
43.720001 12.23 14.107
43.884583 12.151292 14.025375
44.138069 12.135928 14.054285
44.375031 12.132844 14.107094
44.576496 12.104167 14.19
44.7542 12.04 14.2496
43.633862 12.370236 14.038501
43.895802 12.374766 14.050234
44.129059 12.372687 14.162875
44.344498 12.33725 14.2455
43.648514 12.637075 14.119015
43.898418 12.60325 14.203583
44.045498 12.56225 14.2485
42.618347 12.961451 14.028049
42.349674 13.150693 14.019846
42.644279 13.133482 14.130534
42.872169 13.096876 14.211584
42.598557 13.298223 14.193778
40.993 14.15 14.015
41.152664 14.462 14.045667
41.422977 14.387702 14.134011
41.5858 14.304001 14.160601
40.919834 14.696334 14.067833
41.127544 14.629053 14.139621
41.332249 14.55775 14.20725
40.689167 14.865084 14.075209
40.883335 14.820279 14.157027
41.0495 14.7825 14.216001
52.958702 5.6947503 14.395576
53.130177 5.6165819 14.37646
53.302475 5.5357223 14.280167
52.155338 6.3985 14.316792
51.7085 6.7115002 14.313499
51.911827 6.6183929 14.325322
52.070332 6.5840001 14.332667
51.338997 6.9549999 14.297
51.58017 6.8895836 14.306417
51.854893 6.8570719 14.325143
52.038689 6.8185625 14.410874
51.180622 7.0806251 14.297168
51.380337 7.1290002 14.324399
51.632751 7.1080003 14.42475
51.896252 7.04075 14.49575
50.647247 7.42275 14.31975
50.933468 7.3794007 14.296733
51.151165 7.388958 14.350291
51.343605 7.3406997 14.4145
51.547752 7.2880001 14.487499
50.837276 7.6326108 14.406471
51.102997 7.5748334 14.472833
49.723503 7.9580002 14.32225
49.387833 8.1848335 14.301
49.639977 8.1316252 14.356625
49.5634 8.3122997 14.438101
47.746399 9.4291 14.294701
48.047001 9.4530001 14.375
48.419201 9.4195995 14.3552
48.630501 9.3500004 14.42625
47.941498 9.6585007 14.259501
48.165752 9.6833334 14.419444
48.312706 9.5878754 14.430708
48.505001 9.5050001 14.473
47.113873 9.897501 14.283125
47.681747 9.928751 14.347
47.882053 9.873889 14.404
48.064335 9.7973337 14.4485
47.395996 10.154834 14.34525
47.608097 10.114 14.436049
47.449501 10.255 14.454
46.248001 10.692 14.293
46.284416 10.765501 14.402334
44.896751 11.986 14.2955
45.136845 11.875348 14.358072
44.666466 12.184317 14.317167
44.845589 12.120192 14.377208
45.050751 12.052 14.449667
44.191666 12.456167 14.255167
44.392761 12.413071 14.347072
44.602951 12.338573 14.417713
44.765331 12.253001 14.439667
43.914246 12.705444 14.297389
44.120556 12.64928 14.376197
44.338718 12.582884 14.454634
43.925247 12.78775 14.386
44.094002 12.802 14.488
41.656265 14.418083 14.301987
41.225998 14.731 14.2845
41.399784 14.639627 14.32476
41.633739 14.577416 14.427055
41.803001 14.527 14.497
40.944248 14.93075 14.276751
41.131523 14.89635 14.370885
41.355831 14.789918 14.422728
41.516998 14.754 14.498
41.063999 15.034917 14.437333
53.138813 5.8739166 14.594517
53.337502 5.8027496 14.65725
52.124912 6.9273334 14.528
51.724998 7.2480001 14.556
51.886238 7.1755476 14.597572
52.120407 7.0981851 14.679184
52.252998 7.0830002 14.7445
51.427582 7.4312501 14.535583
51.628685 7.3736248 14.614061
51.809498 7.328167 14.680416
50.988998 7.711 14.511
51.163334 7.6543336 14.570084
51.336685 7.6172919 14.654229
51.524002 7.5524998 14.7005
51.161499 7.7667503 14.669
49.853054 8.2968807 14.599859
48.688835 9.4438343 14.543
48.423584 9.6616669 14.563334
48.60524 9.6108332 14.637111
48.828831 9.5353327 14.712166
47.914249 9.97925 14.519751
48.136833 9.8949251 14.577999
48.329754 9.8431854 14.662435
48.543999 9.7819996 14.7395
47.695862 10.20825 14.570722
47.888664 10.11975 14.620896
48.107944 10.051666 14.695056
47.622578 10.322001 14.634587
47.807602 10.26325 14.6902
45.373226 11.927513 14.565666
44.953598 12.2087 14.525301
45.153038 12.149295 14.601115
45.356171 12.090993 14.692993
44.652245 12.444667 14.540833
44.863327 12.395634 14.628975
45.071125 12.307375 14.690541
44.237999 12.74375 14.537999
44.400227 12.673879 14.57254
44.610428 12.602287 14.649017
44.772499 12.567751 14.722
44.151237 12.865864 14.583357
44.341053 12.825946 14.672444
41.677467 14.663034 14.535866
41.878983 14.624556 14.631092
41.400906 14.905314 14.552805
41.605671 14.843418 14.637131
41.807899 14.810301 14.742401
41.217167 15.066022 14.571144
41.364288 15.079953 14.681809
41.536251 15.026751 14.743751
52.464836 6.9598336 14.785
52.132889 7.2132225 14.797778
52.371548 7.1310477 14.867644
52.566113 7.0737782 14.954945
51.725502 7.4724998 14.767
51.897686 7.4182916 14.82375
52.115444 7.3494043 14.902715
52.299999 7.3130002 14.984
51.403999 7.7005 14.759
51.617676 7.6614814 14.858481
51.811916 7.5802498 14.923
51.407249 7.8136878 14.86775
51.571999 7.8205004 14.973
48.686462 9.7372503 14.798458
48.889702 9.6413898 14.845242
48.414803 9.9424 14.7992
48.624985 9.8869076 14.881816
48.835186 9.8154373 14.961437
47.953499 10.241251 14.765
48.166809 10.145362 14.815945
48.350891 10.097139 14.894335
48.569 10.034834 14.9765
47.912403 10.3524 14.836699
48.091904 10.32064 14.92707
45.375626 12.190875 14.788938
45.141834 12.411472 14.827194
45.349251 12.326666 14.889216
45.538002 12.252 14.9465
44.708782 12.715668 14.814778
44.888706 12.63499 14.855684
45.11153 12.575424 14.949349
44.424217 12.910233 14.799802
44.614983 12.859383 14.874023
44.807251 12.7745 14.93225
41.936001 14.740667 14.772334
41.698734 14.945199 14.784401
41.910034 14.881679 14.87477
42.089199 14.8295 14.950801
41.449001 15.171444 14.816334
41.608658 15.12281 14.876849
41.785664 15.0705 14.955833
52.653072 7.1602597 15.086038
52.195999 7.4560833 15.052334
52.382069 7.3852167 15.103467
52.588425 7.3192782 15.182965
51.8834 7.7104669 15.077766
52.116673 7.6110086 15.13451
52.277 7.5710001 15.222
51.658337 7.846333 15.050166
51.863644 7.8270717 15.167476
52.060001 7.7639999 15.232
48.907425 9.9111109 15.091648
49.084026 9.8636999 15.167491
48.452583 10.198501 15.04775
48.639465 10.13035 15.107742
48.833267 10.101001 15.206734
48.161835 10.405666 15.045334
48.36639 10.361987 15.132325
48.593582 10.281917 15.211083
45.433167 12.426666 15.032084
45.620636 12.379397 15.116867
45.144249 12.692714 15.077536
45.363937 12.609208 15.138384
45.560837 12.545834 15.21325
44.708874 12.958875 15.020125
44.911884 12.886846 15.092035
45.100773 12.853209 15.181355
45.274002 12.754 15.213
44.702 13.018 15.066
44.835388 13.039333 15.17411
41.993999 14.995 15.032
42.146076 14.932545 15.075494
41.7355 15.181499 15.013
41.900078 15.150266 15.100359
42.087811 15.089287 15.168215
42.253399 15.047 15.237601
41.695614 15.277278 15.06725
41.823814 15.298751 15.178771
52.640198 7.4454722 15.333472
52.86797 7.3402162 15.388716
52.165665 7.7425003 15.287167
52.380009 7.6155419 15.312574
52.60783 7.5932856 15.433988
51.985001 7.9039998 15.314
52.142597 7.8509002 15.370399
52.344082 7.7773333 15.436958
49.192375 9.9311457 15.298645
48.887581 10.168501 15.305262
49.117966 10.107462 15.405122
48.604504 10.412642 15.3383
48.848091 10.328259 15.415944
48.643002 10.5 15.441
45.737671 12.470333 15.28
45.435001 12.715 15.278
45.643856 12.655426 15.36545
45.169132 12.951978 15.311313
45.373035 12.869917 15.373363
45.560001 12.809584 15.439167
44.958748 13.076 15.29775
45.105194 13.070945 15.372333
45.3111 13.0296 15.471201
42.154583 15.197253 15.300308
41.919693 15.341194 15.277751
42.135387 15.320499 15.39875
42.266335 15.250334 15.424667
52.688 7.6968002 15.58
52.391563 7.8940001 15.566688
52.612415 7.8477917 15.670083
49.188557 10.220833 15.545834
48.900299 10.451134 15.557033
49.11734 10.387157 15.644313
49.303333 10.299334 15.686501
48.743668 10.533334 15.539001
48.92889 10.573667 15.681556
49.037834 10.529667 15.711
45.455498 12.979 15.5245
45.653248 12.897593 15.576833
45.856529 12.843165 15.672071
45.229 13.208 15.574
45.365437 13.126434 15.629041
45.59404 13.0765 15.696
45.326416 13.2745 15.693083
42.374973 15.34642 15.58145
42.607338 15.293016 15.695966
52.704773 7.9122224 15.78511
52.904846 7.870677 15.879345
53.11425 7.8187499 15.973249
52.697998 8.0144997 15.867001
52.851501 8.0185003 15.973499
49.480499 10.13825 15.80475
49.605667 10.136389 15.859858
49.232498 10.446501 15.777
49.395752 10.402107 15.839679
49.585598 10.337376 15.915306
49.765999 10.25 15.9685
49.136806 10.63482 15.866584
49.319668 10.554778 15.923139
49.5 10.504 15.998
45.916748 12.94075 15.799437
46.113419 12.87585 15.873675
45.425999 13.162 15.759
45.698299 13.15475 15.825951
45.870293 13.102163 15.898338
46.069748 13.03525 15.978001
45.462002 13.304667 15.808334
45.605247 13.3011 15.89995
45.764336 13.259334 15.963333
42.90398 15.141399 15.844601
42.656799 15.373867 15.807266
42.840847 15.352798 15.899828
43.050625 15.28525 15.9685
42.625 15.605667 15.974167
42.751503 15.521 15.9775
52.973999 7.9780002 16.023001
53.156376 7.8971252 16.080751
53.349205 7.8670001 16.181238
52.935089 8.0843754 16.084541
53.0783 8.0787668 16.183132
49.651039 10.441417 16.056355
49.876335 10.361166 16.122084
50.053333 10.323 16.203499
49.380386 10.678279 16.067057
49.61068 10.612917 16.162142
49.797501 10.55075 16.238499
49.467999 10.791 16.229
46.38266 12.896691 16.071321
45.962917 13.195833 16.04425
46.143009 13.12929 16.103361
46.367317 13.045784 16.177967
45.675999 13.408834 16.048334
45.865555 13.38035 16.133059
46.080669 13.311666 16.215834
42.94408 15.433 16.036249
43.140949 15.383396 16.118959
42.714264 15.666201 16.082333
42.892796 15.595243 16.132732
43.063499 15.56125 16.213001
42.691002 15.759 16.138
42.813126 15.75875 16.233625
53.449753 7.9372501 16.31325
53.633465 7.8650994 16.378334
53.203503 8.1118326 16.290945
53.374371 8.0970364 16.392408
53.566498 8.0499992 16.4765
49.954338 10.456667 16.254333
50.159466 10.394426 16.34376
50.337593 10.349024 16.420404
49.632999 10.717 16.263
49.875267 10.642204 16.363539
50.096031 10.558567 16.4312
49.449001 10.821 16.257999
49.6478 10.827047 16.370941
49.853001 10.754749 16.4475
46.67429 12.951579 16.303377
46.2365 13.249 16.261
46.3993 13.179049 16.30695
46.616322 13.110632 16.396749
46.831001 13.0385 16.470501
46.11525 13.410556 16.328251
46.347672 13.34004 16.414415
45.955002 13.51825 16.311501
46.118252 13.526899 16.424702
43.418598 15.423024 16.328953
42.947998 15.731 16.286499
43.147419 15.630652 16.330042
43.359577 15.602597 16.434626
43.522499 15.530001 16.478001
42.925671 15.803833 16.336166
43.082466 15.7982 16.430799
53.748001 7.9635 16.5275
53.91946 7.9140277 16.60668
53.445171 8.2139997 16.534668
53.628254 8.1522999 16.603649
53.861103 8.0609999 16.681099
53.672001 8.2620001 16.720501
50.442749 10.429375 16.556499
50.630669 10.384334 16.641521
50.8265 10.282333 16.716167
50.144283 10.686667 16.572945
50.334995 10.603583 16.629375
50.557251 10.53825 16.712999
49.930401 10.8835 16.605215
50.110302 10.8244 16.667999
50.265503 10.762 16.7145
46.735001 13.227 16.577
46.892521 13.143636 16.601965
47.122753 13.075473 16.69532
46.438457 13.431209 16.553791
46.631645 13.348526 16.613201
46.847427 13.315779 16.715359
46.185833 13.613334 16.542665
46.345253 13.578865 16.623064
46.529667 13.538834 16.702835
44.251999 15.184 16.686001
43.702625 15.45175 16.537251
43.890614 15.381387 16.604273
44.109901 15.336537 16.696035
43.413834 15.708667 16.560446
43.590717 15.636606 16.619808
43.800076 15.571376 16.697588
43.209663 15.833667 16.543167
43.368 15.835875 16.649792
43.558998 15.769 16.712999
54.158501 7.9475002 16.781
54.343212 7.9045596 16.877155
54.530499 7.8865004 16.969
53.93153 8.1525335 16.804531
54.10461 8.116889 16.888111
54.303501 8.0762501 16.97225
53.698166 8.2853336 16.766666
53.868923 8.3095007 16.899666
54.040001 8.3000002 16.993
50.963001 10.224 16.782
51.178001 10.229 16.853001
51.381332 10.2005 16.952166
50.741005 10.436 16.773001
50.907532 10.414583 16.851383
51.117573 10.354929 16.924215
51.262005 10.272 16.933668
50.450832 10.672167 16.762001
50.650063 10.628284 16.848942
50.847916 10.594708 16.955376
50.155918 10.928417 16.786417
50.370071 10.861721 16.868649
50.589878 10.790875 16.948313
47.915333 12.699333 16.879166
48.069668 12.698666 16.974167
47.436337 12.953 16.809666
47.6432 12.884272 16.86447
47.855335 12.825252 16.950638
47.134502 13.1845 16.796001
47.37009 13.109537 16.887888
47.5965 13.027334 16.958668
46.87907 13.426976 16.839071
47.091488 13.350477 16.91538
47.259003 13.285749 16.959501
46.653496 13.57015 16.81345
46.857067 13.560834 16.939367
44.375252 15.2155 16.766251
44.646458 15.198585 16.92325
44.1614 15.445033 16.827133
44.362247 15.350327 16.871725
44.559505 15.293834 16.947001
43.714001 15.737499 16.795
43.911991 15.651313 16.837885
44.078991 15.624394 16.924904
44.282997 15.5325 16.974499
43.435669 15.952332 16.796831
43.652622 15.859362 16.853685
43.870098 15.818501 16.957651
43.479 16.014999 16.875
43.585999 16.046 16.96875
54.775002 7.7449999 17.014999
55.125778 7.7090554 17.170057
55.276669 7.6586666 17.226002
54.633636 7.9208603 17.066639
54.87394 7.8673749 17.1555
55.084251 7.80825 17.230999
54.146999 8.2390003 17.01
54.414997 8.1535501 17.10935
54.588352 8.1040716 17.178715
54.754669 8.0563335 17.241001
54.176666 8.2821674 17.067667
54.256001 8.257 17.111
51.444 10.243668 17.024668
51.648376 10.181875 17.1015
51.892502 10.108001 17.200251
52.065002 10.048 17.2495
51.176003 10.452 17.04175
51.381649 10.399355 17.11702
51.592415 10.314667 17.182917
51.7505 10.25 17.226002
50.885334 10.690417 17.060057
51.122833 10.612501 17.138433
51.306499 10.554501 17.209999
50.635571 10.892715 17.070002
50.879166 10.833389 17.174946
48.180668 12.709999 17.064167
48.361572 12.6645 17.134998
48.577503 12.604167 17.222418
47.893299 12.91715 17.0627
48.126137 12.859365 17.153683
48.308125 12.817 17.239626
47.461082 13.207917 17.032585
47.641956 13.144251 17.088104
47.84309 13.086083 17.17244
47.160336 13.437416 17.033915
47.369698 13.377058 17.112324
47.552998 13.317223 17.180889
46.963249 13.585751 17.03125
47.145763 13.573014 17.139666
47.266998 13.594 17.235001
44.913372 15.192334 17.090769
45.093853 15.161322 17.181667
44.466331 15.429501 17.014334
44.658718 15.397499 17.10548
44.846802 15.325949 17.165251
44.195564 15.692709 17.059435
44.397377 15.62001 17.121584
44.579529 15.587695 17.218056
43.8876 15.934024 17.066692
44.115158 15.857947 17.148609
44.334503 15.7815 17.225334
43.703667 16.041626 17.040833
43.842464 16.063036 17.154928
55.8615 7.4805002 17.4505
55.427361 7.6470199 17.316319
55.622837 7.611208 17.405416
55.814247 7.5232501 17.46225
54.953499 7.9495001 17.271
55.160088 7.8782854 17.341322
55.344166 7.859417 17.445667
54.680878 8.2063751 17.323498
54.889084 8.1028891 17.363222
55.08411 8.0377226 17.434778
52.420502 9.9720001 17.4235
52.578999 9.9370003 17.49
51.909779 10.208777 17.293444
52.127262 10.148809 17.384501
52.329399 10.073067 17.442801
51.653503 10.424142 17.323191
51.848263 10.347953 17.373142
52.049416 10.312917 17.476002
51.150005 10.748333 17.271
51.388378 10.642816 17.342241
51.611336 10.576571 17.422121
50.975502 10.9165 17.313
51.111961 10.877937 17.363564
51.313461 10.792812 17.419834
51.087502 11.0165 17.470001
48.654083 12.69025 17.350998
48.839836 12.611866 17.402817
49.036999 12.528999 17.460001
48.377182 12.884728 17.339806
48.573044 12.833668 17.420513
47.923935 13.190416 17.315437
48.126045 13.115794 17.382141
48.340603 13.0414 17.4576
47.63665 13.395738 17.308369
47.864742 13.364574 17.424149
48.042 13.308 17.497
47.37207 13.635644 17.340075
47.600994 13.570001 17.435785
47.2346 13.758 17.350401
47.324917 13.810333 17.463249
45.209087 15.205833 17.296583
45.378731 15.164 17.371777
45.58783 15.096443 17.454222
44.906403 15.437818 17.301167
45.118 15.373052 17.383831
45.295776 15.329445 17.460333
44.442001 15.738667 17.256668
44.667419 15.689104 17.363958
44.836227 15.606298 17.399975
45.046253 15.529 17.47175
44.183502 15.943875 17.269627
44.386894 15.892963 17.359064
44.598789 15.819667 17.43005
43.934887 16.134111 17.276779
44.124638 16.123241 17.383406
44.30661 16.07478 17.459723
56.133747 7.438375 17.594999
56.348103 7.401967 17.696133
55.683666 7.7232223 17.544054
55.890999 7.6361456 17.605875
56.120834 7.5765839 17.702084
55.393898 7.9340005 17.545898
55.618725 7.8637776 17.627169
55.838501 7.8175001 17.7355
55.162407 8.1695557 17.599779
55.377666 8.1062336 17.678898
55.538666 8.0553341 17.743
54.948997 8.2620001 17.5385
55.103832 8.3268337 17.695
52.609497 9.9630003 17.532001
52.85614 9.9393616 17.665388
52.394337 10.153722 17.558889
52.625 10.108188 17.664593
51.959667 10.450667 17.533001
52.14399 10.378117 17.595234
52.334393 10.328584 17.666721
51.673004 10.711333 17.578112
51.867943 10.609918 17.618029
52.067169 10.579166 17.711876
51.188 10.981 17.503
51.397003 10.91425 17.576565
51.606693 10.849858 17.660143
51.852749 10.754499 17.7355
51.152615 11.107944 17.600695
51.369392 11.07527 17.696201
49.2365 12.4755 17.5385
49.372448 12.463557 17.618334
49.5425 12.407 17.6875
48.952499 12.70125 17.55125
49.129646 12.617666 17.59491
49.324333 12.575967 17.693466
48.657669 12.935251 17.563875
48.87397 12.855197 17.637917
49.103973 12.785583 17.724945
48.2225 13.233 17.5485
48.393723 13.146241 17.584242
48.604309 13.071167 17.651901
48.763336 13.056666 17.738335
47.949001 13.427126 17.535999
48.136364 13.377486 17.620211
48.3153 13.32 17.678301
47.654053 13.706734 17.584934
47.861752 13.608354 17.639418
48.086502 13.53975 17.722
47.413368 13.883657 17.583845
47.606949 13.856418 17.684834
47.772999 13.778 17.725
47.439003 14.0425 17.73525
45.649204 15.203214 17.585951
45.857616 15.119812 17.656752
46.005501 15.018 17.68
45.195 15.474501 17.524166
45.407959 15.378383 17.579733
45.612431 15.338142 17.677216
44.935776 15.692917 17.538805
45.113445 15.643816 17.616638
45.314404 15.575817 17.686617
44.663803 15.90755 17.550083
44.862583 15.861768 17.642803
45.095001 15.793 17.733
44.210503 16.234749 17.536751
44.381203 16.151909 17.577888
44.591152 16.094069 17.661104
44.751202 16.048201 17.729799
44.188499 16.387501 17.6635
44.342266 16.289867 17.670666
43.83387 16.632069 17.648134
43.759003 16.778334 17.726334
56.919445 7.2186112 17.912333
56.428501 7.4770002 17.8125
56.620602 7.3597298 17.841749
56.786129 7.355 17.938499
57.006001 7.2509999 17.992001
56.132004 7.6958752 17.81225
56.354134 7.6123834 17.885265
56.552338 7.5358334 17.940668
55.888779 7.8983893 17.832445
56.117149 7.8264284 17.918215
55.405998 8.2237501 17.7995
55.617607 8.1310749 17.859667
55.845104 8.0645008 17.942501
55.213165 8.4110003 17.833668
55.368538 8.3642292 17.900625
55.539333 8.2940006 17.947834
55.229 8.5270004 17.944
52.746414 10.191668 17.815834
52.877884 10.102184 17.834326
52.411171 10.444734 17.817532
52.607811 10.35004 17.862291
51.964001 10.73 17.782
52.165188 10.658 17.847046
52.364449 10.601523 17.92631
52.562 10.511 17.972
51.67617 10.936834 17.784
51.886963 10.884981 17.872297
52.120667 10.8145 17.953167
51.414886 11.183499 17.821444
51.604691 11.125722 17.898092
51.796001 11.063001 17.967333
51.229 11.2745 17.806499
51.390972 11.319611 17.929501
49.215 12.747 17.766001
49.437 12.637595 17.845476
49.531727 12.596184 17.901148
48.968498 12.9575 17.784
49.141685 12.888291 17.838646
49.34536 12.8655 17.948606
48.641102 13.2258 17.812698
48.876225 13.129833 17.879574
49.104 13.05225 17.955124
48.420025 13.41031 17.825548
48.603214 13.355225 17.903168
48.765251 13.29925 17.95175
47.915001 13.733999 17.781666
48.124855 13.633959 17.828636
48.31831 13.620834 17.94125
48.532001 13.521 17.996
47.714142 13.907028 17.795168
47.868443 13.882169 17.879711
48.072922 13.819916 17.951752
47.473503 14.116 17.818001
47.604984 14.105038 17.90189
47.833 14.032499 17.9855
45.936001 15.227 17.792999
46.063515 15.122521 17.854836
45.681335 15.408834 17.784334
45.859257 15.38214 17.881325
46.083374 15.29825 17.955759
45.2425 15.721001 17.7745
45.379116 15.681405 17.819262
45.607826 15.603167 17.901608
45.789833 15.535334 17.966333
44.944336 15.954333 17.772667
45.154293 15.880962 17.851128
45.370403 15.828958 17.942875
44.664124 16.217022 17.81773
44.888519 16.137474 17.89403
45.078831 16.064749 17.958834
44.394402 16.416042 17.813217
44.604912 16.367207 17.912464
44.785 16.253 17.924
43.953503 16.687834 17.764668
44.142788 16.658865 17.86577
44.344902 16.558949 17.90995
44.527 16.514 17.982
43.866039 16.857342 17.861858
44.056747 16.832249 17.95825
43.817001 17.059 17.997
57.162251 7.1985002 18.057251
56.749001 7.4794998 18.033001
56.914337 7.4219995 18.081583
57.106419 7.3546786 18.153715
56.450001 7.704 18.021999
56.644562 7.6549997 18.108002
56.828899 7.5880003 18.177101
56.167999 7.9453335 18.053669
56.353264 7.8901672 18.126734
56.574505 7.7829995 18.173666
55.694 8.2379999 18.011
55.916279 8.1713057 18.081499
56.119553 8.0801115 18.14525
55.389 8.4729996 18.024
55.640766 8.3926907 18.101358
55.854958 8.347291 18.198166
56.056335 8.2523336 18.245335
55.409676 8.5970497 18.132
55.595669 8.5373335 18.193001
52.695 10.496 18.047001
52.445251 10.697001 18.064499
52.587788 10.650382 18.108454
52.828545 10.573501 18.195625
51.962002 10.998 18.02
52.135071 10.913333 18.054134
52.364685 10.840574 18.138325
52.656334 10.759334 18.249334
51.712002 11.212 18.056
51.877098 11.140023 18.08543
52.09721 11.07093 18.168215
52.262501 11.044001 18.246
51.468502 11.428333 18.068834
51.635723 11.362426 18.119204
51.848 11.295625 18.203041
51.499001 11.505 18.153
51.556332 11.557001 18.236668
49.417877 12.949499 18.066502
48.995998 13.17 18.014
49.144653 13.167655 18.082535
49.37001 13.11803 18.184431
49.536251 13.04575 18.223251
48.676498 13.459499 18.046501
48.867493 13.406833 18.109808
49.082336 13.295001 18.154556
49.257 13.259501 18.2325
48.381557 13.68489 18.043333
48.624866 13.612933 18.13299
48.844833 13.533333 18.202333
47.986 13.988 18.044001
48.166004 13.890666 18.076763
48.373943 13.84069 18.171762
48.564499 13.77 18.234001
47.66325 14.212626 18.033625
47.88802 14.137675 18.110823
48.066833 14.077209 18.177792
47.646946 14.346944 18.139196
47.793503 14.310333 18.205
45.96933 15.454 18.022335
45.654602 15.703001 18.0308
45.855316 15.628385 18.090099
46.074562 15.551046 18.1759
45.394169 15.940035 18.054901
45.622948 15.855712 18.133144
45.809002 15.824667 18.229
44.985001 16.184 18.004999
45.152695 16.146631 18.079912
45.364048 16.080667 18.165691
44.6595 16.456249 18.030251
44.873333 16.382391 18.097
45.099628 16.302689 18.183229
44.499001 16.542999 18.195
44.636776 16.566893 18.12322
44.805126 16.57375 18.227125
43.961666 16.973333 18.026669
44.155941 16.92449 18.107084
44.335114 16.844893 18.156054
43.664497 17.206165 18.050167
43.890434 17.136034 18.120417
44.073772 17.065611 18.179777
43.7085 17.292833 18.142082
43.873497 17.277 18.2355
57.2118 7.4253502 18.307598
56.911873 7.6719332 18.300568
57.12085 7.6112823 18.396
56.622997 7.9011431 18.312786
56.841358 7.8702226 18.424112
56.233917 8.1885834 18.315001
56.407532 8.133028 18.370583
56.573132 8.0899334 18.441666
55.885498 8.4373331 18.302376
56.142948 8.3650742 18.401335
56.370998 8.2590008 18.456001
55.474998 8.7054996 18.267502
55.648712 8.6256428 18.308714
55.847301 8.6139717 18.424751
55.493999 8.7639999 18.326
55.584332 8.8020658 18.425167
54.367607 9.6528893 18.388779
54.604614 9.5616112 18.4655
54.131813 9.8584156 18.417126
52.748501 10.722 18.2705
52.873112 10.681557 18.320446
52.453499 10.957167 18.291668
52.636833 10.906723 18.365944
52.865696 10.803584 18.428944
52.142799 11.188601 18.301968
52.371273 11.117126 18.376377
52.597374 11.029499 18.452126
51.892357 11.409145 18.32877
52.108307 11.356556 18.421057
52.257 11.253 18.429501
51.6516 11.622134 18.352533
51.852776 11.561792 18.436958
50.867603 12.2148 18.376333
51.059498 12.1755 18.459501
49.485001 13.172501 18.313999
49.637318 13.12575 18.373667
49.160919 13.416618 18.312452
49.363632 13.346011 18.374126
49.535999 13.289249 18.44375
48.638668 13.735667 18.251667
48.897202 13.645889 18.339981
49.109001 13.565001 18.404905
48.243999 13.952 18.305
48.367069 13.951233 18.304068
48.640427 13.872229 18.373695
48.825001 13.826167 18.450666
48.17765 14.167566 18.330282
48.360073 14.111935 18.399757
48.548 14.005 18.452
47.744003 14.446 18.289501
47.888481 14.392791 18.336397
48.096855 14.337453 18.419739
47.721001 14.5745 18.382751
47.837238 14.562818 18.450016
46.184223 15.658001 18.335196
46.347706 15.618705 18.411036
46.546673 15.541667 18.490667
45.735001 15.931 18.2715
45.888332 15.900204 18.346203
46.092884 15.831668 18.420111
45.429375 16.198269 18.310083
45.646263 16.120258 18.375612
45.895378 16.036999 18.469
45.123047 16.428534 18.305079
45.362846 16.360952 18.402798
45.541916 16.298752 18.469168
44.895119 16.624216 18.335833
45.111835 16.567715 18.415524
44.431416 16.95775 18.310835
44.556915 16.888748 18.345417
43.966499 17.2425 18.257
44.112946 17.167112 18.298166
44.33408 17.105394 18.37755
44.545197 17.0508 18.470402
43.916943 17.365278 18.341002
44.114937 17.307106 18.414667
56.943001 7.9455004 18.560751
57.128086 7.8455 18.620686
56.631702 8.2053003 18.586901
56.832783 8.1239166 18.639618
57.041 8.0299997 18.698
56.171001 8.4700003 18.514
56.386452 8.3946009 18.59145
56.610786 8.3415728 18.689428
55.937752 8.6820002 18.547874
56.116837 8.6262226 18.611307
56.3414 8.5715008 18.712702
55.684624 8.8885002 18.568251
55.862751 8.8472004 18.637798
56.143002 8.75 18.740334
55.696999 9.0030003 18.688999
54.889999 9.4729996 18.5625
55.122498 9.4315004 18.683167
55.279999 9.3730001 18.724001
54.460999 9.7443342 18.529001
54.6297 9.6723671 18.579166
54.859196 9.6116943 18.665277
55.040672 9.5566664 18.742668
54.373405 9.9069529 18.61331
54.607597 9.8227997 18.692301
54.195999 10.014 18.594
54.353752 10.0225 18.7055
52.883167 10.935034 18.553165
52.438999 11.2145 18.504
52.632374 11.156751 18.588438
52.840771 11.103416 18.668728
52.132526 11.402167 18.560446
52.392879 11.387834 18.629396
52.576 11.303833 18.675375
51.925358 11.669167 18.579447
52.107941 11.610001 18.647167
52.349998 11.5435 18.743
51.710503 11.802 18.554501
51.84045 11.823306 18.658445
51.156998 12.19525 18.545
51.357121 12.159286 18.638214
51.586502 12.08075 18.7125
50.89362 12.428905 18.573574
51.095875 12.349958 18.640041
51.338997 12.259251 18.71525
49.907124 13.160221 18.587223
50.089272 13.132396 18.700167
49.42725 13.47725 18.529375
49.639717 13.381132 18.591599
49.844166 13.344807 18.693472
49.174854 13.659813 18.529541
49.384457 13.621311 18.635103
49.561752 13.55825 18.688499
48.890602 13.911938 18.565062
49.105129 13.846019 18.650185
49.348999 13.751001 18.729334
48.442497 14.196833 18.522667
48.596466 14.152845 18.588238
48.804623 14.087548 18.662739
48.142502 14.458278 18.555445
48.37468 14.36996 18.628082
48.580334 14.311223 18.708889
47.889 14.678032 18.586315
48.131001 14.576092 18.650703
48.3405 14.5185 18.734001
47.642231 14.904277 18.626322
47.859699 14.8252 18.699301
46.838001 15.455 18.674
46.449837 15.6985 18.542999
46.635368 15.637909 18.625898
46.861446 15.609333 18.734335
46.139252 15.93975 18.541084
46.364239 15.879528 18.639494
46.587891 15.809278 18.720167
45.8848 16.188343 18.591177
46.100811 16.092667 18.649857
46.258999 16.060333 18.727001
45.44825 16.443001 18.53075
45.648376 16.393711 18.617683
45.8475 16.326603 18.685646
45.162331 16.674938 18.544811
45.369938 16.627916 18.639013
45.576832 16.550167 18.700167
45.342999 16.756201 18.735601
44.447502 17.206167 18.5375
44.650593 17.144272 18.622978
44.818005 17.134083 18.713083
44.148232 17.441566 18.550434
44.367733 17.379667 18.642632
44.545624 17.3022 18.685978
44.166916 17.549917 18.654707
56.943333 8.2096663 18.7885
57.092358 8.1449413 18.849501
56.649334 8.4156666 18.779667
56.866718 8.3671112 18.879639
57.036499 8.3379993 18.969
56.382671 8.6745558 18.833832
56.621128 8.6103754 18.928438
56.755501 8.54 18.9555
55.925499 8.9689999 18.78125
56.137657 8.8681879 18.843908
56.335083 8.8567085 18.953209
55.884136 9.0758572 18.851856
56.038502 9.0581665 18.937334
55.237999 9.4449997 18.763
55.394165 9.4256659 18.8465
55.635468 9.3570662 18.939533
55.827 9.2659998 18.966999
54.861504 9.7180004 18.7575
55.133926 9.6354265 18.862907
55.353165 9.5942507 18.964251
54.663502 9.9227667 18.811199
54.855919 9.8651876 18.889896
55.025501 9.7974997 18.936249
54.627998 10.023251 18.876499
53.192833 10.942833 18.7575
52.964447 11.188001 18.820665
53.114922 11.1453 18.888428
53.342499 11.029375 18.928625
52.397999 11.479 18.768999
52.658184 11.40725 18.818064
52.838169 11.360259 18.896723
53.008999 11.301 18.947001
52.177502 11.7185 18.7805
52.368103 11.630291 18.830854
52.595081 11.583028 18.930361
52.77 11.523 18.993
51.92522 11.926333 18.800667
52.107197 11.863111 18.865685
52.335835 11.769167 18.928333
51.446503 12.2375 18.7635
51.660198 12.16699 18.837345
51.868931 12.109285 18.930357
52.0495 12.0355 18.9765
51.153667 12.453667 18.765335
51.352005 12.396571 18.844885
51.593998 12.316444 18.926666
51.165501 12.513 18.825001
51.312168 12.549167 18.946835
50.182499 13.146832 18.795166
50.375504 13.169944 18.892057
50.5895 13.110333 18.976
49.906063 13.427499 18.805813
50.116043 13.371927 18.898405
50.331627 13.296875 18.966499
49.447998 13.7225 18.759501
49.654137 13.641094 18.822313
49.856285 13.595095 18.917738
50.046669 13.531001 18.983669
49.185753 13.9255 18.770626
49.377247 13.889733 18.862215
49.614666 13.813889 18.944445
48.7365 14.2295 18.75
48.919193 14.157917 18.796473
49.127167 14.111265 18.893116
49.299252 14.047 18.950251
48.648876 14.39747 18.82872
48.860409 14.349905 18.92425
49.002998 14.328 18.996
48.182941 14.704056 18.787445
48.372593 14.631315 18.852926
48.606499 14.561399 18.941799
47.890377 14.939918 18.815041
48.106918 14.85675 18.880451
48.292999 14.794 18.94278
47.709999 15.042 18.789501
47.872231 15.097534 18.936466
48.036999 15.0175 18.971001
47.236 15.479 18.875999
47.415497 15.484501 18.9755
46.897533 15.688001 18.824083
47.110199 15.628767 18.902552
47.288166 15.560333 18.956501
46.474998 15.991 18.808001
46.647854 15.890604 18.830917
46.859257 15.828366 18.914892
47.012001 15.81 18.997
46.17889 16.209612 18.801945
46.383137 16.127924 18.865923
46.610134 16.055201 18.9473
45.890697 16.4251 18.799526
46.104763 16.346186 18.876064
46.305244 16.293501 18.95425
45.652508 16.656458 18.84251
45.847298 16.600834 18.924501
46.018002 16.524 18.965
45.444504 16.818125 18.856125
45.621735 16.814434 18.965368
44.741333 17.241667 18.764334
44.913624 17.187376 18.822876
45.072128 17.188791 18.928501
44.633572 17.40958 18.834858
44.856911 17.339977 18.92131
44.238251 17.639999 18.781
44.371723 17.642668 18.869667
44.59446 17.55356 18.932758
44.3055 17.775499 18.942501
56.923248 8.4750004 19.0205
57.088867 8.3794508 19.065533
56.674248 8.7039995 19.044001
56.862278 8.6399546 19.115229
57.060249 8.5428333 19.185749
56.402332 8.9368057 19.070557
56.593311 8.868125 19.139374
56.798168 8.8143339 19.222334
55.969002 9.2275 19.036499
56.137981 9.1598129 19.093998
56.359131 9.0989323 19.186733
55.711334 9.4145002 19.037167
55.888908 9.3809061 19.126377
56.073124 9.3108749 19.18425
55.417564 9.6918669 19.093266
55.612629 9.6033335 19.147852
55.82225 9.5567503 19.229252
54.9655 9.9750004 19.055
55.145813 9.8938751 19.100021
55.356499 9.8483753 19.197624
54.902836 10.068833 19.111168
55.131371 10.046125 19.221874
54.105503 10.691501 19.124582
54.3255 10.610167 19.200333
53.6455 10.93125 19.048874
53.861176 10.876309 19.131964
54.115166 10.815416 19.240417
53.243 11.236 19.052
53.395336 11.166 19.079889
53.608459 11.098457 19.164373
53.785999 11.034 19.216
52.901497 11.48325 19.039749
53.130833 11.385944 19.099113
53.328327 11.347333 19.197666
52.673901 11.705701 19.089802
52.861248 11.620684 19.141033
53.070164 11.550334 19.208334
52.174 11.969 19.025999
52.401379 11.885396 19.072271
52.601349 11.849801 19.173248
52.849998 11.754 19.245501
51.908585 12.195917 19.033417
52.136192 12.130332 19.119795
52.333496 12.07325 19.193624
52.514 12.008 19.247999
51.64325 12.434375 19.066124
51.86388 12.368519 19.152157
52.033501 12.3025 19.2015
51.420956 12.600542 19.068001
51.608185 12.572056 19.164057
50.670803 13.161499 19.071699
50.852337 13.121417 19.153418
51.015999 13.049 19.192501
50.1745 13.4925 19.041
50.398918 13.392667 19.091438
50.583622 13.332596 19.162546
50.751499 13.264999 19.211498
49.938499 13.6915 19.052666
50.121365 13.62475 19.116701
50.341545 13.574313 19.210749
49.487999 13.979 19.007
49.644848 13.925 19.067051
49.85326 13.850347 19.13764
50.105167 13.766916 19.228252
49.220497 14.2195 19.056499
49.379776 14.140124 19.08152
49.602787 14.079619 19.173832
48.932999 14.428889 19.039112
49.114998 14.3625 19.098148
49.323895 14.30161 19.189001
48.625565 14.670626 19.05125
48.857689 14.596146 19.137646
49.043747 14.552999 19.219501
48.153 14.98 19.015499
48.389683 14.887196 19.088924
48.607834 14.817834 19.173292
48.756001 14.7565 19.203499
47.916878 15.188375 19.043751
48.132214 15.133655 19.132704
48.309128 15.067438 19.196438
47.646164 15.472833 19.114334
47.916 15.36875 19.191
48.096832 15.291 19.244501
47.244499 15.719999 19.070999
47.39045 15.628854 19.081032
47.605598 15.581739 19.17684
47.766335 15.544666 19.247
46.923054 15.920834 19.038195
47.138458 15.844666 19.108
47.347668 15.824666 19.223944
46.666836 16.144358 19.060953
46.877605 16.106207 19.163605
47.058998 16.063999 19.246
46.168999 16.469 19.035
46.379059 16.395916 19.090433
46.6315 16.295349 19.17075
45.934334 16.687334 19.056667
46.12109 16.605045 19.107611
46.303146 16.579979 19.203646
45.668751 16.884958 19.060875
45.857624 16.825365 19.129864
46.070999 16.761999 19.208
45.159752 17.219875 19.022499
45.265999 17.23 19.089001
44.935501 17.445374 19.064041
45.139469 17.371637 19.129864
45.357918 17.300499 19.205166
44.635201 17.68775 19.076651
44.869122 17.594954 19.14937
45.046501 17.545 19.216
44.437393 17.865723 19.101778
44.57655 17.850546 19.183617
44.777 17.7675 19.234001
56.974503 8.7404995 19.2745
57.052166 8.6921387 19.312056
56.689499 8.9505005 19.27025
56.883438 8.8960629 19.345606
57.032001 8.8433495 19.424698
56.412167 9.1668329 19.277
56.631023 9.1318541 19.38571
56.813335 9.048667 19.435999
56.189667 9.4201002 19.3508
56.355076 9.3488102 19.401072
56.532501 9.2810001 19.450001
55.704498 9.6762505 19.26675
55.903111 9.6528149 19.37072
56.077499 9.5812912 19.425959
56.252998 9.5419998 19.497
55.365665 9.9488335 19.290667
55.639668 9.8621664 19.38624
55.880001 9.8009996 19.487
55.164165 10.171166 19.357834
55.351624 10.099125 19.413876
55.5205 10.039 19.4625
54.885002 10.4795 19.445
55.192001 10.279 19.459
54.402 10.665285 19.296143
54.617817 10.60268 19.382915
54.827999 10.533 19.459999
54.172497 10.90943 19.35943
54.348724 10.838667 19.414291
54.54467 10.753334 19.462334
53.701168 11.175334 19.289833
53.881409 11.142297 19.373222
54.076294 11.077624 19.443333
53.405235 11.426 19.319901
53.621651 11.367216 19.402166
53.805 11.268 19.44175
52.940498 11.7355 19.289001
53.150646 11.647799 19.34605
53.342484 11.598736 19.424362
52.664001 11.9465 19.304501
52.863167 11.877335 19.361593
53.036163 11.7935 19.413584
52.240501 12.2365 19.275501
52.402859 12.157858 19.315144
52.611965 12.113626 19.409052
52.789001 12.063 19.479
51.9575 12.467501 19.297499
52.132946 12.394777 19.346334
52.344387 12.329715 19.427525
51.624588 12.703751 19.297165
51.872486 12.624917 19.375715
52.062832 12.543334 19.432999
51.362499 12.9845 19.358501
51.654499 12.836082 19.419832
50.957504 13.2065 19.294334
51.131508 13.138555 19.346306
51.339417 13.074195 19.424501
51.522999 13.007 19.48
50.676331 13.41225 19.291502
50.855934 13.366031 19.365168
51.076668 13.301333 19.462502
50.376499 13.678809 19.329098
50.599243 13.604796 19.407112
50.818001 13.513 19.466999
49.944336 13.947834 19.279501
50.145935 13.878803 19.350624
50.378605 13.821466 19.457266
49.644165 14.181027 19.289389
49.882111 14.104861 19.376251
50.059162 14.027667 19.424082
49.197502 14.4775 19.251999
49.389969 14.417813 19.327824
49.607307 14.334357 19.396856
49.815002 14.252666 19.46175
48.922333 14.7085 19.275002
49.103882 14.657549 19.348692
49.322155 14.586617 19.42906
48.664749 14.925817 19.299583
48.872395 14.860834 19.369873
49.047001 14.814834 19.448334
48.416645 15.151024 19.334763
48.625416 15.086916 19.412958
48.803501 15.0365 19.476999
47.964001 15.4585 19.300751
48.155121 15.396453 19.374857
48.314304 15.352701 19.441034
47.670887 15.642056 19.276834
47.87727 15.618999 19.382391
48.066254 15.54775 19.446375
47.241001 15.94225 19.25725
47.415207 15.922292 19.346167
47.611107 15.847546 19.409454
47.757 15.763 19.437334
46.943447 16.200335 19.288446
47.135132 16.126852 19.346851
47.340504 16.082134 19.439568
46.662212 16.415535 19.291149
46.868912 16.364029 19.37886
47.064442 16.288889 19.444778
46.221001 16.709999 19.263
46.4151 16.628069 19.315681
46.61694 16.599186 19.421478
45.951 16.9 19.271
46.138153 16.872852 19.350443
46.335625 16.800312 19.414562
45.377762 17.430166 19.337372
45.566975 17.36511 19.407057
44.953403 17.701233 19.293701
45.1413 17.636137 19.358471
45.333416 17.5755 19.433638
45.516998 17.506001 19.487
44.674709 17.926416 19.309666
44.862373 17.873753 19.38048
45.063835 17.807167 19.457832
44.66811 18.025 19.388
57.02 8.9606667 19.528
56.932858 9.1515713 19.610142
57.008583 9.048584 19.603916
56.4445 9.4512501 19.55275
56.660286 9.3554525 19.597952
56.824669 9.3167076 19.673624
56.159916 9.6935835 19.576502
56.371502 9.6142006 19.636951
56.541084 9.5407505 19.688999
55.745331 9.9383335 19.518002
55.896782 9.8932858 19.582642
56.117371 9.8474369 19.680374
55.398247 10.208 19.539625
55.619968 10.13725 19.616446
55.81617 10.081917 19.69754
55.126873 10.44775 19.58075
55.359406 10.371072 19.655455
54.742001 10.713 19.558001
54.867748 10.635278 19.574835
55.085629 10.588959 19.671331
54.436874 10.951375 19.567749
54.609665 10.882458 19.62129
54.804832 10.799958 19.675543
54.128887 11.19214 19.583334
54.370216 11.105389 19.653851
54.542999 11.0545 19.723999
53.632 11.477 19.504999
53.89093 11.384916 19.596033
54.120098 11.3202 19.683599
54.292336 11.259666 19.741667
53.411625 11.690001 19.550875
53.60931 11.627125 19.621687
53.804871 11.57275 19.702501
53.133839 11.911799 19.570999
53.351185 11.858045 19.657196
53.556499 11.7565 19.706501
52.675499 12.231251 19.55125
52.863209 12.135875 19.590445
53.073757 12.096195 19.689417
52.39917 12.439199 19.5597
52.627476 12.352646 19.628729
52.752998 12.321 19.678501
52.14922 12.647749 19.57873
52.376141 12.598083 19.677624
51.670834 12.961834 19.538332
51.876907 12.884258 19.607555
52.103622 12.823126 19.696083
51.40514 13.183972 19.573055
51.618855 13.105214 19.633356
51.806499 13.041 19.696499
50.927002 13.4845 19.5145
51.146935 13.382218 19.570908
51.367268 13.355867 19.683268
50.653999 13.698126 19.523376
50.862137 13.64068 19.610159
51.082203 13.5827 19.696701
50.396503 13.931027 19.554224
50.634666 13.854074 19.642574
50.817749 13.82925 19.737249
49.958748 14.24675 19.545498
50.143169 14.180285 19.611071
50.347034 14.084399 19.6544
49.613335 14.469334 19.510166
49.865791 14.409416 19.627384
50.083126 14.320625 19.691124
49.409332 14.6755 19.563084
49.620415 14.608126 19.636375
49.858002 14.5515 19.744751
48.98 14.976 19.536499
49.173954 14.885976 19.589357
49.356743 14.835834 19.663427
49.538666 14.762 19.723667
48.670086 15.217751 19.555334
48.884979 15.126001 19.607935
49.100708 15.071 19.695835
48.405785 15.435096 19.577688
48.615685 15.37587 19.656536
48.806 15.298459 19.710461
48.135033 15.628738 19.564478
48.333317 15.60311 19.664982
48.518501 15.546499 19.744999
47.694 15.928499 19.536251
47.869167 15.877833 19.604557
48.084354 15.805145 19.685917
47.387833 16.169434 19.553202
47.605667 16.111195 19.634277
47.800499 16.040001 19.698999
46.962002 16.495001 19.552
47.139263 16.367987 19.560167
47.347206 16.344425 19.666002
47.545666 16.264668 19.731667
46.688 16.70175 19.557564
46.883682 16.634647 19.622541
47.122471 16.563679 19.715748
46.249001 16.975 19.506332
46.413639 16.927805 19.574999
46.598415 16.878408 19.648451
46.792225 16.792278 19.705
46.375134 17.051733 19.655066
45.650833 17.423584 19.510166
45.762001 17.421 19.575001
45.42067 17.66925 19.574499
45.611004 17.608833 19.638407
45.795998 17.563 19.723
44.984001 17.959499 19.533501
45.130127 17.903791 19.584562
45.335918 17.855402 19.6721
44.9245 18.077665 19.600142
45.111614 18.049667 19.696278
56.926624 9.4016066 19.836121
56.4585 9.7180004 19.7815
56.62878 9.6382856 19.831928
56.836426 9.6060238 19.932665
56.194626 9.9176254 19.792
56.381741 9.8762226 19.875666
56.603626 9.8057499 19.954998
55.741001 10.222 19.768
55.916168 10.168786 19.8365
56.131691 10.085062 19.895874
56.338501 10.025499 19.984501
55.445999 10.489 19.806
55.63448 10.374563 19.834665
55.8442 10.3222 19.9191
55.151997 10.6685 19.779833
55.35099 10.629809 19.877621
55.551376 10.559751 19.939499
54.871803 10.929335 19.827452
55.106625 10.838416 19.900688
55.276501 10.759501 19.938
54.427498 11.237499 19.807251
54.596188 11.152771 19.850895
54.837082 11.077832 19.930498
55.015999 11.011 19.996
54.168663 11.415874 19.799833
54.366066 11.381626 19.896999
54.570999 11.2985 19.956501
53.901169 11.669168 19.84948
54.100693 11.597438 19.912251
54.317001 11.505 19.968
53.452 11.969 19.814999
53.635052 11.86975 19.852499
53.813171 11.823584 19.924458
53.164001 12.159399 19.801998
53.368469 12.095668 19.875944
53.546669 12.051001 19.950001
52.747498 12.4545 19.790501
52.899647 12.393685 19.838017
53.117573 12.317499 19.9055
53.314499 12.253 19.977001
52.395248 12.70225 19.783001
52.620686 12.61987 19.860518
52.808357 12.569 19.927355
