# .PCD v0.7 - Point Cloud Data file format
VERSION 0.7
FIELDS x y z
SIZE 4 4 4
TYPE F F F
COUNT 1 1 1
WIDTH 98
HEIGHT 1
VIEWPOINT -18.2321 96.2205 -1.35163 -0.354149 -0.00701479 0.0211809 0.934923
POINTS 98
DATA ascii
20.269501 78.350006 28.613125
20.455166 77.944 28.889999
20.600536 77.91993 28.880606
20.328917 78.137459 28.897291
20.265875 78.399002 28.827
20.460583 77.95163 29.107792
20.60729 77.915741 29.137239
20.780834 77.769501 29.144897
20.341375 78.133492 29.109459
20.265501 78.385002 29.106834
20.252666 78.639 29.151001
20.453224 77.963661 29.357111
20.611229 77.916214 29.380127
20.831028 77.769173 29.387194
20.36385 78.085899 29.368999
20.264084 78.352501 29.362417
20.249001 78.630501 29.34
20.25 78.639 29.438999
20.460222 77.973999 29.649336
20.629786 77.905617 29.641766
20.844168 77.770668 29.651585
20.334749 78.136215 29.627823
20.258751 78.396126 29.647873
20.248501 78.633499 29.532501
20.25 78.642502 29.665001
20.458 77.985672 29.892334
20.605539 77.944214 29.860666
20.804832 77.807083 29.896875
20.340708 78.154671 29.88833
20.547001 78.003998 29.971001
20.257666 78.381172 29.872833
20.24925 78.648254 29.907001
20.25 78.644997 29.761
20.460388 77.988998 30.145056
20.632999 77.912949 30.1194
20.825041 77.808037 30.144293
20.381964 78.077187 30.127394
20.547501 78.012672 30.134666
20.2603 78.337997 30.1208
20.247 78.649002 30.245998
20.25 78.657745 30.10375
20.43178 77.965004 30.372223
20.610571 77.929939 30.382833
20.7952 77.828751 30.362698
20.349335 78.11161 30.353798
20.552 78.040001 30.497
20.255499 78.374298 30.376501
20.2435 78.641747 30.38875
20.636999 77.921082 30.604834
20.796101 77.840149 30.630701
20.394388 78.129211 30.624611
20.554251 78.053001 30.616501
20.255167 78.359253 30.649002
20.243999 78.649254 30.585751
20.636944 77.928383 30.854221
20.826973 77.837952 30.889807
20.396429 78.12178 30.877285
20.557333 78.072166 30.865
20.249001 78.449997 30.841
20.256166 78.333839 30.910501
20.243666 78.656494 30.863333
20.630501 77.939316 31.133875
20.831804 77.826752 31.131388
20.417067 78.078804 31.131598
20.559832 78.091667 31.152666
20.288843 78.315903 31.12719
20.644571 77.933052 31.36986
20.824188 77.842857 31.365999
20.435535 78.07914 31.370434
20.562166 78.106667 31.375
20.247501 78.464249 31.3645
20.2913 78.314102 31.382603
20.241667 78.664673 31.3535
20.63155 77.954102 31.618801
20.827438 77.854187 31.636959
20.423918 78.094475 31.645111
20.572666 78.078499 31.595833
20.244751 78.460999 31.6075
20.310598 78.281403 31.620749
20.2395 78.666336 31.647501
20.660625 77.941307 31.873688
20.844189 77.84597 31.889999
20.426542 78.104836 31.893665
20.574499 78.079796 31.880798
20.244667 78.469002 31.855001
20.299086 78.293724 31.885445
20.659334 77.943169 32.138168
20.83997 77.852814 32.13578
20.401001 78.118202 32.117901
20.556166 78.094337 32.14975
20.317356 78.299431 32.121429
20.658375 77.947998 32.38475
20.822821 77.875389 32.377823
20.830776 77.871834 32.644669
20.207249 77.964249 32.839752
20.849125 77.829376 32.909126
20.4 78.029747 32.97575
20.327124 78.070679 33.119106
