# .PCD v0.7 - Point Cloud Data file format
VERSION 0.7
FIELDS x y z
SIZE 4 4 4
TYPE F F F
COUNT 1 1 1
WIDTH 127
HEIGHT 1
VIEWPOINT -18.2321 96.2205 -1.35163 -0.354149 -0.00701479 0.0211809 0.934923
POINTS 127
DATA ascii
38.872601 13.455602 4.2028332
38.624901 13.410571 4.3188858
38.870655 13.36818 4.320889
39.147297 13.309785 4.3360357
39.377937 13.309235 4.3260336
39.591702 13.329534 4.3166666
39.890499 13.383249 4.33425
39.16 13.594 4.4520001
39.364334 13.602 4.4749999
39.6315 13.618999 4.4885001
38.73521 13.675083 4.6489024
38.913864 13.651651 4.6277304
39.163704 13.615084 4.6199818
39.397575 13.604856 4.6249485
39.607834 13.634 4.5821667
39.822231 13.660625 4.6532087
40.052856 13.697958 4.6278124
38.852566 13.670086 4.8877664
39.105389 13.632909 4.8663197
39.355927 13.614546 4.8654189
39.648479 13.648604 4.8829374
39.839169 13.674667 4.8791666
40.069492 13.710089 4.8704295
38.493668 13.636 5.1416669
38.670326 13.637326 5.1782503
38.849339 13.617902 5.1359611
39.110569 13.583243 5.1378093
39.366222 13.582621 5.1193523
39.62347 13.607203 5.103683
39.864967 13.628632 5.1569338
40.060001 13.735333 5.0724163
38.540001 13.729 5.4844999
38.962002 13.62 5.309
39.144501 13.585875 5.2952499
39.343719 13.627836 5.3719001
39.652626 13.5355 5.2721252
39.178619 13.793107 5.418345
39.254333 13.753 5.382
38.381001 13.719 5.5009999
38.536362 13.738388 5.6429176
39.277962 13.662834 5.6352754
38.481998 13.756111 5.6507778
38.683167 13.767166 5.6343331
39.216476 13.817822 5.5982022
39.280495 13.868178 5.6520176
38.321503 13.730833 5.923667
38.534798 13.748801 5.8592
38.498337 13.762333 5.8373337
38.525497 13.755667 5.9538336
38.883335 13.838584 5.8029995
38.43861 13.773167 6.0830002
38.572083 13.774534 6.1412501
38.86689 13.858388 6.1731668
38.48275 13.789917 6.3527222
38.524834 13.774 6.4033756
38.860004 13.859668 6.3889446
39.341045 13.705168 6.6439171
38.428234 13.785466 6.6092668
38.530392 13.784301 6.6467223
38.9795 13.9025 6.5365
39.181698 13.868505 6.6512032
39.318142 13.942607 6.6222982
39.254807 13.742614 6.9008121
38.468227 13.814889 6.8522224
38.550446 13.800389 6.8780837
39.266827 13.972076 6.8510551
39.514999 13.755 6.757
39.254501 14.002501 6.9709997
39.626503 14.0745 6.7854996
39.290417 13.725082 7.0907502
38.487961 13.822875 7.0981255
38.526447 13.808528 7.1525002
38.873127 13.900958 7.1419168
39.185108 13.858157 7.157773
39.289711 13.987875 7.1009169
39.277115 14.01089 7.1427779
38.4375 13.8255 7.3658004
38.524414 13.820584 7.4022503
38.970001 13.936 7.3165002
39.191566 13.854445 7.3688231
39.150002 13.745667 7.6650004
39.379501 13.742001 7.6745
38.468861 13.850888 7.6504998
38.57077 13.832685 7.6567798
38.876041 13.83095 7.6728745
39.120319 13.865893 7.6241775
39.358116 13.759611 7.5947323
39.597332 13.789166 7.6490836
39.921867 13.878166 7.603734
39.160999 14.005 7.5760002
39.617001 14.106 7.5609999
39.344498 13.746 7.7600002
38.406803 13.840028 7.9181113
38.579391 13.849334 7.8565841
38.921165 13.921333 7.8436251
39.179447 13.871942 7.8628941
39.29557 13.754666 7.8563061
39.958801 13.896853 7.8805871
38.436462 13.861022 8.1148243
38.535458 13.844166 8.0970831
38.958832 13.967168 8.0895004
39.553001 13.837 8.2119999
38.433277 13.880946 8.4220552
38.589279 13.87895 8.378911
39.192154 13.923118 8.3775272
39.259644 13.782073 8.4000006
39.164627 14.041874 8.3850832
38.452503 13.898621 8.6397734
38.515167 13.872334 8.6005001
38.854752 13.960917 8.5844164
38.141998 13.707 8.8479996
39.0355 13.7365 8.9850006
38.031502 13.7875 8.8195
38.477753 13.896584 8.8407297
38.63448 13.872611 8.887146
38.880405 13.861975 8.8978758
38.914417 13.737317 9.1151915
39.137981 13.7045 9.1339455
38.473503 13.860001 9.1599998
38.639729 13.814785 9.1228781
38.836426 13.760287 9.0481434
39.188774 13.740331 9.3378601
38.4795 13.893375 9.4221249
38.648174 13.843697 9.362958
38.862095 13.790946 9.3649263
39.050587 13.76035 9.355937
38.072498 13.663751 9.5754995
