# .PCD v0.7 - Point Cloud Data file format
VERSION 0.7
FIELDS x y z
SIZE 4 4 4
TYPE F F F
COUNT 1 1 1
WIDTH 1529
HEIGHT 1
VIEWPOINT -18.2321 96.2205 -1.35163 -0.354149 -0.00701479 0.0211809 0.934923
POINTS 1529
DATA ascii
7.3660808 -2.3858042 -1.1751188
7.6164856 -2.3841507 -1.1737965
7.8663964 -2.3671844 -1.1740248
8.1203203 -2.3645031 -1.1725719
8.3838415 -2.3697021 -1.1700882
8.6352673 -2.3802502 -1.1669171
8.8842134 -2.3506873 -1.1648936
9.1213913 -2.3531926 -1.1623137
9.3760881 -2.4088454 -1.1507531
9.6179724 -2.3829229 -1.1040726
9.8447437 -2.3419721 -1.0653257
10.00727 -2.4079041 -1.0086861
12.133161 -2.3450167 -1.1582216
12.353909 -2.3793488 -1.1596659
12.599373 -2.3517597 -1.1586908
12.850826 -2.3499277 -1.1593343
13.09759 -2.3564956 -1.1583519
13.358116 -2.3646266 -1.1569062
13.626619 -2.3795848 -1.1571293
13.894953 -2.3785281 -1.1597416
14.116933 -2.3520894 -1.1628274
14.377475 -2.3634686 -1.1654214
14.652958 -2.3651984 -1.166487
14.884783 -2.3751252 -1.1657274
15.159135 -2.3774951 -1.1660892
15.386411 -2.3718057 -1.1671333
15.577981 -2.3852499 -1.1682382
15.851745 -2.3826568 -1.175349
16.094566 -2.3793516 -1.1784049
16.368168 -2.3954229 -1.1241589
16.617393 -2.3678553 -1.0842878
16.866926 -2.3643126 -1.0694464
17.105082 -2.3538401 -1.0604008
17.359137 -2.3809724 -1.0481237
17.582417 -2.4070263 -1.0367515
17.860096 -2.3626003 -1.0285573
18.13003 -2.378947 -1.0140637
18.349678 -2.3260715 -1.0075524
-0.12134887 -2.1252351 -1.248522
0.12080009 -2.1489794 -1.245597
0.37829092 -2.1335993 -1.2426332
0.64936775 -2.1486845 -1.2412558
0.90903682 -2.1307514 -1.2429726
1.1204907 -2.1341577 -1.2429945
1.3488773 -2.1327403 -1.2428936
1.616196 -2.1496427 -1.2405912
1.8635803 -2.1216609 -1.2436426
2.1490335 -2.1211793 -1.2456017
2.397141 -2.1013227 -1.246088
2.5975089 -2.1007895 -1.2443722
2.86361 -2.1206131 -1.2441925
3.131855 -2.1170371 -1.2394096
3.3693841 -2.1116109 -1.2323055
3.6336393 -2.13537 -1.2267863
3.9078679 -2.1303661 -1.2206031
4.1138225 -2.1329563 -1.2158604
4.3664117 -2.1165614 -1.2098058
4.6303058 -2.1525826 -1.2019827
4.8541756 -2.1098409 -1.1981852
5.1197453 -2.1169374 -1.1964314
5.3858075 -2.1345451 -1.1950965
5.6490912 -2.1179571 -1.1948962
5.8704972 -2.1109219 -1.1926396
6.1327286 -2.1208816 -1.1863382
6.4106851 -2.1298206 -1.1828151
6.6474891 -2.1171162 -1.1805634
6.8856864 -2.1308181 -1.1793998
7.121388 -2.1611116 -1.1788375
7.3684039 -2.1219361 -1.179477
7.6600471 -2.1370916 -1.1780438
7.9108901 -2.1289887 -1.1771039
8.1470985 -2.1160581 -1.1739823
8.3655272 -2.1319485 -1.1724045
8.6333323 -2.1174731 -1.1706289
8.8709917 -2.1348679 -1.1684271
9.1652632 -2.1219106 -1.1660881
9.4030447 -2.1502581 -1.1618732
9.6071672 -2.1292567 -1.141506
9.8492136 -2.0972736 -1.0955288
10.096799 -2.0972605 -1.0181969
10.32275 -2.0327501 -1.0139999
11.850508 -2.1354258 -1.1584435
12.102244 -2.1308267 -1.1593829
12.376068 -2.1143329 -1.1608495
12.625031 -2.0923748 -1.1611457
12.865561 -2.1101043 -1.1614528
13.138177 -2.0994425 -1.1628652
13.387491 -2.1314311 -1.1621095
13.633454 -2.1163762 -1.1626315
13.865735 -2.1506298 -1.1637638
14.095953 -2.0998771 -1.1663921
14.348485 -2.1214368 -1.1673349
14.58819 -2.1309061 -1.1676123
14.857454 -2.1089785 -1.1691316
15.116556 -2.1469464 -1.1697426
15.395425 -2.1133006 -1.170998
15.62589 -2.1352656 -1.171672
15.906525 -2.1317751 -1.17568
16.117903 -2.1464555 -1.1790842
16.35058 -2.1224065 -1.1812032
16.621923 -2.1162093 -1.1438701
16.854153 -2.1405339 -1.0855745
17.136366 -2.1119661 -1.0735899
17.364616 -2.1343265 -1.0638126
17.626398 -2.1519108 -1.0520042
17.865595 -2.116549 -1.0435323
18.142492 -2.1220138 -1.0297588
18.411404 -2.1304717 -1.0149405
0.19825041 -1.9490831 -1.2484379
0.36935419 -1.888422 -1.2468261
0.64906949 -1.89933 -1.2441729
0.8987298 -1.8998203 -1.2435272
1.1361582 -1.8390421 -1.244647
1.3690325 -1.9086397 -1.2432325
1.6493784 -1.8504596 -1.2448745
1.8898875 -1.8707588 -1.248158
2.1486712 -1.9495176 -1.2487817
2.4007344 -1.9501429 -1.2494992
2.6613283 -1.863409 -1.2483371
2.9011054 -1.900926 -1.246235
3.1298614 -1.9109876 -1.2412713
3.3649788 -1.8670381 -1.2347788
3.6313102 -1.8881156 -1.2293327
3.8716083 -1.9099709 -1.2235404
4.147016 -1.89958 -1.2173309
4.3877115 -1.8702068 -1.2126232
4.6495686 -1.8891553 -1.2055151
4.8853984 -1.8830395 -1.200626
5.1179461 -1.8701584 -1.1985514
5.3772368 -1.8433059 -1.1968499
5.6206288 -1.8621869 -1.1954635
5.8775382 -1.851486 -1.1932465
6.1619525 -1.878446 -1.1883339
6.3885527 -1.8703873 -1.1853802
6.6157703 -1.8673772 -1.1846403
6.8507471 -1.8645872 -1.1834211
7.1479874 -1.8964092 -1.1809149
7.3913064 -1.8704789 -1.1824915
7.6183228 -1.8652638 -1.1815144
7.8667645 -1.8685499 -1.1801094
8.1628094 -1.8783859 -1.1764925
8.401062 -1.8998573 -1.1746272
8.6311808 -1.8689829 -1.1732711
8.850235 -1.8654282 -1.1750203
9.1153936 -1.8837029 -1.1712161
9.3650055 -1.8513752 -1.1699997
9.6296062 -1.8732758 -1.1645466
9.8620234 -1.8943672 -1.1373293
10.151607 -1.8713218 -1.0994303
10.378505 -1.8394589 -1.0906944
10.624842 -1.8394111 -1.1118056
11.111446 -1.882701 -1.1523114
11.372002 -1.8683373 -1.1606588
11.626269 -1.8502771 -1.1616621
11.880514 -1.8508642 -1.162481
12.128268 -1.8679062 -1.1629623
12.383859 -1.8848044 -1.1642146
12.611737 -1.8855205 -1.1641494
12.862932 -1.8405249 -1.1660603
13.148753 -1.9016954 -1.1667093
13.358628 -1.8491541 -1.1686941
13.629951 -1.8538224 -1.1687702
13.876872 -1.908379 -1.1680696
14.145209 -1.8630593 -1.1691186
14.403392 -1.8514196 -1.1700001
14.642915 -1.9052166 -1.170086
14.875667 -1.880114 -1.1710889
15.131315 -1.8471403 -1.1735917
15.381795 -1.8863171 -1.1738847
15.628327 -1.880722 -1.1750069
15.878259 -1.8636252 -1.1732929
16.10549 -1.8618115 -1.173594
16.389891 -1.8907818 -1.1812104
16.627132 -1.8585761 -1.1859618
16.898956 -1.8928858 -1.1353643
17.156168 -1.8812805 -1.0900774
17.366512 -1.8702142 -1.0828214
17.617853 -1.8924919 -1.0691774
17.864223 -1.8508177 -1.0599792
18.128019 -1.871269 -1.0459905
18.351887 -1.8655039 -1.0321379
18.644053 -1.8652828 -1.0139296
0.41512501 -1.7143779 -1.2493645
0.6367479 -1.6628331 -1.24742
0.87778801 -1.6348085 -1.2468594
1.148959 -1.6013923 -1.247316
1.3985642 -1.649649 -1.2464505
1.5457388 -1.6499928 -1.2466238
2.7494929 -1.6488522 -1.2485043
2.8986695 -1.6501414 -1.2459747
3.1202533 -1.6356258 -1.2418611
3.363694 -1.6500094 -1.2372639
3.6482937 -1.6499121 -1.2319188
3.8972819 -1.6492079 -1.2261108
4.1350594 -1.6498464 -1.2190803
4.3825479 -1.6342617 -1.2138821
4.6504064 -1.6354564 -1.2093996
4.8956046 -1.638909 -1.2018633
5.1167908 -1.6269414 -1.1990483
5.3708053 -1.6077001 -1.1980965
5.6478052 -1.6228434 -1.19376
5.8995638 -1.5993946 -1.1930085
6.134788 -1.6376678 -1.1915675
6.4099464 -1.6302944 -1.1872355
6.6491499 -1.6223248 -1.1867126
6.909234 -1.6293787 -1.1859674
7.120069 -1.6487005 -1.1836061
7.3662858 -1.6327381 -1.1835763
7.6016855 -1.600142 -1.1837254
7.8520207 -1.6366875 -1.181854
8.1220465 -1.6497097 -1.1792462
8.3783712 -1.6348022 -1.1775469
8.6167545 -1.6168219 -1.1774935
8.8827791 -1.6325431 -1.1778582
9.1111431 -1.6299703 -1.1748936
9.349761 -1.6216676 -1.1723354
9.6334782 -1.637916 -1.1690363
9.906147 -1.6318948 -1.1644795
10.149037 -1.6208817 -1.1459969
10.410934 -1.6250937 -1.1185977
10.582594 -1.6229274 -1.1210265
10.853664 -1.6348166 -1.1352371
11.1543 -1.6158162 -1.1538155
11.387479 -1.6459931 -1.1625434
11.632988 -1.6094244 -1.1638978
11.874178 -1.5932075 -1.1679475
12.138984 -1.6338258 -1.1678327
12.387121 -1.6340271 -1.1688812
12.629697 -1.6191717 -1.1687137
12.869594 -1.6098936 -1.1698126
13.123321 -1.6479477 -1.1711146
13.385625 -1.6153852 -1.1735255
13.611293 -1.6283478 -1.1724591
13.870744 -1.637157 -1.1717488
14.141923 -1.6109538 -1.1720911
14.373995 -1.6087996 -1.1731187
14.611234 -1.6332998 -1.1724442
14.877007 -1.6457796 -1.1742657
15.105708 -1.6289219 -1.1758089
15.346552 -1.621419 -1.1783773
15.614932 -1.6476289 -1.1779288
15.8479 -1.6233709 -1.1755006
16.137125 -1.6344911 -1.1726613
16.36001 -1.6251003 -1.1739235
16.592375 -1.6014999 -1.180125
16.846342 -1.6398683 -1.1898834
17.135735 -1.6350729 -1.1480275
17.398932 -1.6230167 -1.0971479
17.622326 -1.6469015 -1.0865271
17.87315 -1.589762 -1.0748255
18.127117 -1.6230935 -1.0586793
18.399509 -1.6278524 -1.042119
18.616924 -1.5912691 -1.0313299
0.74797803 -1.4506634 -1.2498515
0.94930452 -1.4477261 -1.2499179
1.1493199 -1.4502884 -1.2485572
1.3492053 -1.4013174 -1.24946
2.900794 -1.4500502 -1.2482805
3.1480024 -1.3998399 -1.2449495
3.3884492 -1.3711709 -1.2424728
3.647063 -1.3639221 -1.2364237
3.8828726 -1.3677558 -1.2292854
4.1488948 -1.3786432 -1.2210001
4.3891649 -1.370483 -1.2156442
4.6478229 -1.3632398 -1.2107633
4.9195504 -1.3523653 -1.2032062
5.109076 -1.370754 -1.199924
5.3484063 -1.3728509 -1.1986245
5.6274619 -1.3627197 -1.1946212
5.9038501 -1.3372872 -1.1942006
6.1336474 -1.3794302 -1.1925936
6.3898077 -1.3707626 -1.190493
6.6353588 -1.3635039 -1.1890649
6.8904238 -1.3712646 -1.1901028
7.1382017 -1.3618098 -1.1860033
7.3894053 -1.3674947 -1.1851916
7.6196847 -1.3504388 -1.186263
7.8769717 -1.3650608 -1.1845562
8.1141262 -1.3837743 -1.1828641
8.3727112 -1.3904772 -1.18174
8.631835 -1.3630286 -1.1811889
8.9001732 -1.3510851 -1.1788603
9.1300383 -1.3680438 -1.1777525
9.3654413 -1.3652308 -1.1745034
9.6091681 -1.3706353 -1.170821
9.8619261 -1.3654028 -1.1689842
10.148693 -1.3514439 -1.1602454
10.413144 -1.3709174 -1.1502268
10.613125 -1.3703222 -1.1474022
10.868297 -1.409639 -1.151749
11.161159 -1.3832344 -1.1646719
11.402283 -1.3682709 -1.1709898
11.632423 -1.3672231 -1.1725488
11.879656 -1.365546 -1.1738237
12.152633 -1.4019542 -1.1735777
12.368473 -1.3707049 -1.1743975
12.626513 -1.3879426 -1.1730762
12.885212 -1.386212 -1.1740602
13.133887 -1.3838849 -1.1752073
13.366881 -1.3665835 -1.1771961
13.615773 -1.3737425 -1.1757344
13.878197 -1.3828316 -1.1756293
14.1 -1.4017785 -1.1752118
14.365456 -1.3813034 -1.1760427
14.6134 -1.3397199 -1.1763719
14.854337 -1.3986682 -1.176875
15.131314 -1.365098 -1.1796901
15.421921 -1.3676845 -1.1819735
15.622236 -1.3968413 -1.1799698
15.846562 -1.3861532 -1.1781303
16.115993 -1.3873534 -1.176798
16.367842 -1.3702984 -1.1737955
16.631367 -1.3817154 -1.1761667
16.865215 -1.4037335 -1.1839001
17.086416 -1.3778044 -1.1780866
17.362326 -1.3704523 -1.165874
17.597315 -1.3815449 -1.1107545
17.858624 -1.3807415 -1.0882027
18.117352 -1.3722961 -1.0736241
18.354614 -1.3657936 -1.0602961
18.641651 -1.383601 -1.0449221
18.884203 -1.3575436 -1.0399445
3.1489666 -1.1753987 -1.2487351
3.3632104 -1.1492378 -1.2439758
3.6151857 -1.1333669 -1.236945
3.8649418 -1.1183246 -1.2312297
4.1144757 -1.1177942 -1.2242413
4.3645239 -1.1494228 -1.216426
4.6326771 -1.1172813 -1.211607
4.8701935 -1.1107416 -1.2080401
5.1378632 -1.1316663 -1.2016654
5.3360829 -1.1388365 -1.1990474
5.599535 -1.1012547 -1.1927692
5.8560395 -1.1115549 -1.193864
6.1579375 -1.1372676 -1.192616
6.4069414 -1.1302633 -1.1909128
6.6279955 -1.0895789 -1.1897902
6.8659081 -1.1505421 -1.190891
7.0960255 -1.1011714 -1.1884958
7.3498335 -1.1366094 -1.1869699
7.5975394 -1.0997161 -1.1879691
7.8373156 -1.1205815 -1.1885458
8.1504192 -1.1504457 -1.1870369
8.3762903 -1.1351702 -1.1854442
8.6498423 -1.1169051 -1.1822067
8.869235 -1.109754 -1.1797807
9.1329775 -1.1217562 -1.1778028
9.3879099 -1.1328481 -1.1762762
9.6355696 -1.1209519 -1.1732607
9.8732157 -1.129958 -1.171677
10.12853 -1.0912739 -1.1706511
10.365855 -1.1332999 -1.1681113
10.647475 -1.122124 -1.1702449
10.874873 -1.1597155 -1.1715575
11.098278 -1.1487803 -1.1729466
11.344629 -1.1205051 -1.1744596
11.64401 -1.1360803 -1.1766703
11.898952 -1.0976703 -1.1770453
12.102874 -1.1532835 -1.1758872
12.367292 -1.1359572 -1.1764164
12.6354 -1.1354798 -1.1765387
12.86583 -1.1508945 -1.1767
13.085004 -1.130926 -1.1765393
13.353732 -1.1354164 -1.1785359
13.625386 -1.1474396 -1.1801902
13.846095 -1.1221429 -1.1812023
14.11884 -1.1487732 -1.1799475
14.354653 -1.1355212 -1.1802206
14.651221 -1.101336 -1.1798929
14.8977 -1.1527867 -1.1803948
15.145862 -1.1117696 -1.1820325
15.369511 -1.1331474 -1.1824445
15.62699 -1.1491101 -1.1820924
15.876015 -1.1357715 -1.1813577
16.118181 -1.136176 -1.1805233
16.348928 -1.1386087 -1.1785693
16.616016 -1.1403421 -1.1767334
16.860468 -1.112389 -1.1777722
17.124598 -1.116361 -1.1845139
17.37114 -1.1326667 -1.1900139
17.624659 -1.1285998 -1.1684419
17.869871 -1.1421537 -1.112125
18.08667 -1.1170903 -1.0914468
18.347937 -1.1198868 -1.0762436
18.623226 -1.1232262 -1.067983
18.892826 -1.128979 -1.0550362
19.099531 -1.1503842 -1.0345666
19.630148 -1.0819833 -1.0058334
3.1795342 -0.88262361 -1.2476043
3.3834095 -0.88389879 -1.2424889
3.6311054 -0.86767197 -1.234609
3.8822021 -0.88451451 -1.2299095
4.1448116 -0.85071981 -1.2213944
4.3991342 -0.85060197 -1.2161478
4.6346693 -0.86338246 -1.2113032
4.8901949 -0.87094241 -1.2080374
5.1534505 -0.85763508 -1.2031038
5.3600039 -0.85839677 -1.198722
5.6342998 -0.86869019 -1.1947479
5.8790622 -0.87781715 -1.1946878
6.1334648 -0.88326144 -1.1920366
6.3667016 -0.86700839 -1.190456
6.6160507 -0.88386363 -1.1884655
6.8649755 -0.86820269 -1.1874199
7.1207609 -0.86599189 -1.1871004
7.3662796 -0.86755157 -1.187063
7.6199636 -0.85109144 -1.1879133
7.8680687 -0.88462257 -1.1888988
8.1345844 -0.87975454 -1.1880406
8.3658934 -0.8520022 -1.1861229
8.6476059 -0.86430347 -1.1818608
8.9002686 -0.90111309 -1.1782981
9.1208096 -0.85207504 -1.1763111
9.3492632 -0.86555278 -1.1779846
9.621398 -0.86568689 -1.180375
9.8482571 -0.86825633 -1.1781868
10.113275 -0.86688858 -1.1751065
10.34837 -0.8828485 -1.1743083
10.638063 -0.86440831 -1.1748036
10.910109 -0.87477028 -1.1765239
11.135633 -0.83719301 -1.1789331
11.374022 -0.91006505 -1.179587
11.618623 -0.86508501 -1.1808723
11.88255 -0.86977863 -1.1792397
12.127913 -0.88622981 -1.1778389
12.366527 -0.86790425 -1.1779217
12.638713 -0.87796026 -1.1778429
12.868507 -0.84952217 -1.1775138
13.129859 -0.88077265 -1.177827
13.364217 -0.8713029 -1.1817203
13.603737 -0.8536287 -1.1862566
13.85408 -0.87725836 -1.1867828
14.147111 -0.8669824 -1.1854178
14.365912 -0.864685 -1.184518
14.632164 -0.85389161 -1.1853018
14.849885 -0.898525 -1.1846986
15.119302 -0.86487496 -1.1853011
15.392052 -0.87727475 -1.1859124
15.628566 -0.88706523 -1.1850411
15.868037 -0.86923724 -1.1847831
16.115953 -0.85274571 -1.1850592
16.352522 -0.90085286 -1.1836292
16.621141 -0.882833 -1.1828746
16.849546 -0.85351741 -1.1824516
17.111145 -0.86537224 -1.1827472
17.373714 -0.86780363 -1.1899287
19.358194 -0.90060836 -1.0306001
19.650679 -0.90469289 -1.017193
19.904543 -0.89050007 -1.0056584
20.007 -0.88700002 -1.001
3.2469969 -0.7005825 -1.2467375
3.3640029 -0.61691004 -1.2417408
3.6353629 -0.62171185 -1.2323817
3.8675144 -0.64945614 -1.2279202
4.1278377 -0.59099877 -1.2214077
4.3645678 -0.61031544 -1.2153323
4.6630626 -0.62213504 -1.2104933
4.9092393 -0.62998939 -1.2082112
5.1584454 -0.61949962 -1.2023104
5.3634281 -0.61974925 -1.1998906
5.6312671 -0.62865603 -1.1981163
5.8732648 -0.61332268 -1.1985457
6.1264939 -0.59771544 -1.1975926
6.3830075 -0.64916086 -1.19016
6.6463318 -0.63598251 -1.1893791
6.883081 -0.63188452 -1.1888431
7.1645746 -0.62273395 -1.1877415
7.4089675 -0.63114583 -1.187348
7.6597352 -0.62180918 -1.1854784
7.9069991 -0.62930477 -1.1849561
8.1095209 -0.63000739 -1.1842182
8.364419 -0.621921 -1.1822916
8.6310968 -0.61553478 -1.1797367
8.8789692 -0.65028763 -1.1767346
9.097312 -0.60002345 -1.1758393
9.3630114 -0.62166071 -1.1791029
9.6412315 -0.59987402 -1.1837596
9.9009199 -0.6490624 -1.1840887
10.10903 -0.62983978 -1.179703
10.36057 -0.63685077 -1.1771898
10.663355 -0.62185448 -1.177502
10.886899 -0.63108802 -1.1803286
11.102402 -0.59807968 -1.1844872
11.365164 -0.63694155 -1.1833094
11.636446 -0.59623384 -1.1837475
11.855284 -0.65032005 -1.181806
12.135863 -0.65349472 -1.1812019
12.651625 -0.63147503 -1.1793646
12.909352 -0.64228547 -1.1803799
13.111118 -0.63196391 -1.1815988
13.357593 -0.66546029 -1.1842583
13.626988 -0.64726669 -1.1907667
13.872793 -0.64044607 -1.1915032
14.125822 -0.67502987 -1.1888236
14.414884 -0.69060642 -1.1874305
14.58868 -0.67997223 -1.1872361
14.865435 -0.69850278 -1.1879666
15.148125 -0.69560003 -1.1876665
15.357445 -0.69526398 -1.1878333
15.58881 -0.71460414 -1.1895695
15.822879 -0.70069999 -1.1873444
16.143709 -0.70200002 -1.18775
16.387739 -0.72654754 -1.1868095
16.593666 -0.71850002 -1.1875833
16.973 -0.73825002 -1.1855
17.133749 -0.74200004 -1.1835001
17.339668 -0.74466676 -1.1863334
3.2471581 -0.29954076 -1.2492646
3.3649216 -0.38377163 -1.2427114
3.6475022 -0.36338797 -1.2325177
3.8883755 -0.37039 -1.2279968
4.1360445 -0.36347285 -1.2222344
4.3846498 -0.35140622 -1.2171348
4.6125975 -0.37406266 -1.193397
4.8300929 -0.38970512 -1.2002481
5.1364317 -0.37741405 -1.2045729
5.3810878 -0.37419748 -1.2008171
5.6146202 -0.37814701 -1.2016205
5.8697944 -0.37775549 -1.2014942
6.1307774 -0.38198167 -1.2016701
6.3358212 -0.36333987 -1.1958036
6.5850987 -0.33728758 -1.1947547
6.8481479 -0.37963322 -1.1902174
7.1205306 -0.36536816 -1.1879684
7.3665624 -0.36767399 -1.185438
7.648561 -0.36499551 -1.1823418
7.8822436 -0.36755776 -1.1809812
8.1012106 -0.35058782 -1.1805733
8.3475304 -0.39913729 -1.1801687
8.6216011 -0.35296813 -1.1804217
8.8718948 -0.40870214 -1.1770335
9.1239338 -0.41281667 -1.1778034
9.3682003 -0.39069471 -1.180449
9.6297064 -0.38957423 -1.1843174
9.8717804 -0.41160321 -1.1862601
10.127327 -0.39025757 -1.1842917
10.374188 -0.41151923 -1.1817137
10.627135 -0.40764672 -1.1791399
10.867746 -0.38941711 -1.1797949
11.121229 -0.39702657 -1.1036801
11.335 -0.49399999 -1.142
18.342499 -0.2545 -1.2060001
18.60611 -0.25813216 -1.1931036
20.344751 -0.25712499 -1.0289999
20.644501 -0.287 -1.0105
20.851334 -0.28266668 -1.0046667
3.4222007 -0.15032181 -1.2423091
3.6491923 -0.12183674 -1.2351282
3.908987 -0.13115789 -1.2293037
4.1474724 -0.10264163 -1.2222468
4.3909922 -0.13184685 -1.2182744
4.6317058 -0.11943213 -1.2150774
4.8789825 -0.15024593 -1.2123692
5.1489453 -0.10215867 -1.2083563
5.3828139 -0.14995979 -1.2073659
5.6255112 -0.10791077 -1.2091038
5.8522816 -0.11811277 -1.2093502
6.1352563 -0.13630392 -1.2080063
6.3891444 -0.1367908 -1.2012115
6.6374011 -0.117907 -1.1980021
6.8991351 -0.10119814 -1.1953768
7.1470981 -0.1321217 -1.189455
7.3843193 -0.11930525 -1.1849915
7.6151128 -0.13342479 -1.1827656
7.8678613 -0.12067136 -1.1833198
8.131299 -0.13137107 -1.1843911
8.3638439 -0.13999212 -1.1843057
8.6483355 -0.1215468 -1.1846651
8.8778181 -0.15135427 -1.1824176
9.1328125 -0.15202472 -1.180815
9.3760443 -0.15101609 -1.1817894
9.6459217 -0.15090586 -1.1838862
9.9004993 -0.15012702 -1.1874828
10.135243 -0.14946817 -1.1888986
10.380126 -0.15090308 -1.188242
10.636129 -0.16251129 -1.1850028
10.877069 -0.13305905 -1.1841856
11.143216 -0.14595611 -1.1463753
11.396085 -0.10072392 -1.1895564
11.600975 -0.10179558 -1.1928041
11.848831 -0.10266724 -1.193349
12.12717 -0.093918674 -1.1905345
12.364591 -0.12294787 -1.1828457
12.606594 -0.12114485 -1.1851568
18.133732 -0.16749999 -1.1989958
18.425343 -0.13717143 -1.2077358
18.668867 -0.15791291 -1.2029021
18.881289 -0.12810266 -1.1628826
19.14275 -0.14677401 -1.102391
19.373348 -0.11938753 -1.087659
20.130066 -0.13985085 -1.0470476
20.39422 -0.15008886 -1.0332459
20.607311 -0.15337007 -1.0219519
20.861431 -0.12791725 -1.0124372
21.094416 -0.096291669 -1.0048749
21.288334 -0.035500001 -1.0025001
3.1512311 0.24885674 -1.249819
3.3701911 0.16920522 -1.2441008
3.6353121 0.1367788 -1.2337137
3.8881469 0.12928537 -1.2285545
4.1215005 0.14904411 -1.2275432
4.3637848 0.14962216 -1.2237021
4.6338949 0.16142532 -1.219541
4.8774123 0.13521758 -1.2156687
5.1314492 0.11541989 -1.2117529
5.3827872 0.13209701 -1.2108783
5.634048 0.13369279 -1.2140197
5.8822999 0.13381971 -1.2151374
6.1024284 0.14900522 -1.2144319
6.3743114 0.12585877 -1.2080775
6.6307049 0.11862958 -1.2020153
7.3881035 0.12850697 -1.1863559
7.598381 0.14956705 -1.1875873
7.8494525 0.099655896 -1.1889966
8.1362295 0.13660923 -1.1916603
8.3884325 0.12893751 -1.1910205
8.6224108 0.13415475 -1.1903541
8.8661737 0.13050792 -1.1896805
9.1351404 0.13506605 -1.1883008
9.3831882 0.13290776 -1.1868932
9.635807 0.13176098 -1.1858608
9.8693705 0.11635345 -1.1887242
10.134968 0.12984379 -1.1911983
10.350083 0.11770295 -1.1915282
10.598927 0.14729446 -1.1930777
10.865548 0.11875714 -1.193269
11.127384 0.11572498 -1.1930833
11.361783 0.13350219 -1.1931781
11.632513 0.12072674 -1.1934011
11.864915 0.14651319 -1.1946375
12.131351 0.13366666 -1.196077
12.384668 0.13066058 -1.1930344
12.598975 0.12636304 -1.1922064
12.839576 0.13395682 -1.1941141
13.135744 0.15087397 -1.1993985
13.368279 0.12770995 -1.2012634
13.622636 0.093251698 -1.2028368
13.8853 0.15011024 -1.2059081
14.140468 0.11531566 -1.2050692
14.38657 0.12105795 -1.2020208
14.610748 0.11315645 -1.2011213
14.850452 0.1068368 -1.2023369
15.144227 0.11250278 -1.2055936
15.39338 0.13295972 -1.2063543
15.641691 0.12769206 -1.2048075
15.888499 0.089119062 -1.2017976
16.121088 0.11650838 -1.200982
16.375523 0.14035554 -1.2002686
16.599131 0.14100716 -1.1992167
16.849928 0.12844822 -1.1982286
17.111498 0.14150952 -1.1990309
17.356377 0.13959725 -1.1988755
17.635408 0.14422768 -1.1952842
17.87536 0.12589882 -1.1946548
18.140249 0.12333333 -1.1960238
18.398584 0.13719444 -1.2002778
18.585222 0.094999999 -1.2094444
18.888474 0.085742064 -1.2104754
19.126518 0.14522646 -1.1848756
19.376625 0.10701618 -1.116219
19.636335 0.12099525 -1.0973761
19.868374 0.15829152 -1.0854049
20.141394 0.13149047 -1.0642017
20.365019 0.10797498 -1.0533878
20.596159 0.14792858 -1.0415238
20.856619 0.13167709 -1.0268757
21.129448 0.11563889 -1.0167612
21.388054 0.13688888 -1.0086666
21.633474 0.20789333 -1.0057434
21.931499 0.242 -1.0015
3.1157148 0.41598114 -1.2451382
3.3635697 0.37722737 -1.2365664
3.6461487 0.39992869 -1.2271866
3.8838329 0.35069382 -1.2201296
4.1283998 0.38979539 -1.2171516
4.371531 0.40861496 -1.2164401
4.6310349 0.40936175 -1.2183533
4.8913541 0.40102121 -1.2118437
5.1428804 0.38381431 -1.2055353
5.3497872 0.38674998 -1.2050847
5.6341538 0.38240358 -1.2155565
5.8655949 0.36670756 -1.217671
6.1275058 0.40864754 -1.2185854
6.3515735 0.3668569 -1.2155451
7.3567147 0.31447595 -1.1924171
7.6584239 0.33567676 -1.1930593
7.8887825 0.29811892 -1.1958917
8.0737095 0.35027757 -1.1978638
8.3835297 0.34801033 -1.1958114
8.8542652 0.35630697 -1.1926514
9.1148815 0.36658758 -1.191749
9.349225 0.3788639 -1.1901636
9.637517 0.35062498 -1.1885231
9.884861 0.38260522 -1.1901187
10.115449 0.38349286 -1.1909816
10.381155 0.34964293 -1.1928232
10.659135 0.39304033 -1.1967205
10.88766 0.367576 -1.1995947
11.132533 0.39000595 -1.1993271
11.382325 0.3845787 -1.1999604
11.604897 0.38314533 -1.1975805
11.909579 0.36158013 -1.19638
12.143559 0.37080207 -1.1990715
12.399969 0.36854666 -1.1977718
12.646765 0.39767134 -1.199609
12.900084 0.38354859 -1.1999289
13.090269 0.35031599 -1.2017735
13.365635 0.40093562 -1.2059923
13.630477 0.36250865 -1.2073613
13.902043 0.39862603 -1.2089584
14.117668 0.38705459 -1.2095038
14.363887 0.36921689 -1.2068471
14.622831 0.36592236 -1.2044666
14.869808 0.36750102 -1.205662
15.139473 0.36478364 -1.2081213
15.389575 0.37023503 -1.2096393
15.616408 0.36945614 -1.2082905
15.886 0.36314288 -1.2077456
16.151419 0.37680665 -1.2075555
16.364208 0.37658691 -1.2051381
16.630869 0.35667345 -1.2028707
16.872816 0.37336069 -1.2024286
17.116547 0.34222221 -1.2023597
17.37207 0.38961986 -1.2027088
17.610516 0.3823286 -1.2010572
17.851469 0.38187408 -1.199787
18.123442 0.36427382 -1.1999047
18.360584 0.38583329 -1.1999999
18.604919 0.35080478 -1.2034
18.887751 0.38956666 -1.2125666
19.1113 0.38863334 -1.21755
19.376905 0.37946251 -1.1920216
19.621204 0.37666121 -1.1351839
19.872833 0.39684391 -1.1027474
20.109764 0.37748593 -1.0758054
20.406372 0.36404333 -1.0671568
20.58075 0.3962 -1.0575
20.865072 0.38721108 -1.0409639
21.097866 0.38413334 -1.0322001
21.325727 0.36146337 -1.0241534
21.654602 0.38576666 -1.0175999
21.885918 0.37733331 -1.011
22.070778 0.35999998 -1.0078889
22.357248 0.36430001 -1.0045999
22.660999 0.49599999 -1.005
2.9241474 0.67393601 -1.2475849
3.1482697 0.61492813 -1.2390465
3.367018 0.63224053 -1.232264
3.6500463 0.6327247 -1.221947
3.8814008 0.61535722 -1.2140325
4.1465602 0.63537759 -1.2083781
4.3772111 0.63829464 -1.2016624
4.6430402 0.63365841 -1.2002863
4.8735008 0.62579221 -1.1992651
5.1274514 0.6054076 -1.1962702
5.3855672 0.62259185 -1.1998719
5.6085238 0.63857746 -1.2079989
5.8792701 0.64808899 -1.2191247
6.1393533 0.63631761 -1.2220281
6.3659139 0.64885288 -1.2217687
9.3485117 0.50466663 -1.1919111
9.6408234 0.51428157 -1.1892551
9.9005203 0.523 -1.1907068
10.100911 0.52765477 -1.1914167
10.351559 0.53409547 -1.1940523
10.647384 0.55135596 -1.1989363
10.888085 0.56140238 -1.2008572
11.128973 0.57865965 -1.2012691
11.389109 0.58200765 -1.2008371
11.606721 0.58196509 -1.1986619
14.111162 0.60106409 -1.2108952
14.366118 0.6189875 -1.2098458
14.612387 0.64891154 -1.2076129
14.864906 0.61038834 -1.2077249
15.134812 0.63680631 -1.2106853
15.384178 0.63224834 -1.2124584
15.599192 0.62498164 -1.213336
15.862225 0.63898718 -1.21341
16.129648 0.62136304 -1.2138138
16.396946 0.63172448 -1.2108799
16.569584 0.62358868 -1.2091651
16.844969 0.61891025 -1.2071024
17.105042 0.63179165 -1.2069376
17.371616 0.61982387 -1.207081
17.617956 0.62651908 -1.2066381
17.865915 0.63343751 -1.2055312
18.113064 0.63033336 -1.2062973
18.376732 0.61606115 -1.2047611
18.581635 0.63045001 -1.2051332
18.84329 0.63749999 -1.2101668
19.107916 0.61491662 -1.2170833
19.375134 0.60721958 -1.2153412
19.646162 0.60144061 -1.2032236
19.864714 0.65314418 -1.1601223
20.137615 0.60051686 -1.1069268
20.355043 0.64541984 -1.0951148
20.617947 0.6153447 -1.0725343
20.855066 0.63086569 -1.0587909
21.13592 0.64295137 -1.0484999
21.371862 0.61380553 -1.0388612
21.631384 0.61115479 -1.0331845
21.867346 0.62595004 -1.0251278
22.164099 0.60481662 -1.0205667
22.371101 0.62289995 -1.0178502
22.641054 0.61329168 -1.0107361
22.899529 0.63708335 -1.0075973
23.073915 0.66729164 -1.0049167
23.2715 0.72899997 -1.0039999
2.8973594 0.89854437 -1.2458661
3.1357999 0.86217773 -1.2385328
3.4088693 0.86984122 -1.2277429
3.6211655 0.86334503 -1.2194853
3.8648083 0.8675282 -1.2096179
4.1414204 0.90117985 -1.2026235
4.354681 0.84645736 -1.1971306
4.6006007 0.85428268 -1.1955775
4.8484006 0.89917582 -1.1862692
5.1490173 0.86522204 -1.1868826
5.3813505 0.86407632 -1.1928397
5.6268287 0.8865239 -1.200076
5.8499656 0.88305134 -1.212604
6.1260595 0.88833153 -1.2243526
6.3845611 0.88352901 -1.2255889
8.1479588 0.89957595 -1.2009102
8.3999329 0.90527534 -1.2008336
8.6017408 0.92122978 -1.2000967
8.8618498 0.931997 -1.1996695
9.1296844 0.95136672 -1.1982973
9.3939228 0.96875304 -1.1948273
9.6550636 0.98101169 -1.1953048
9.8978338 0.99300003 -1.1965001
15.377197 0.80247623 -1.2145685
17.355745 0.8790136 -1.2121632
17.634747 0.86503571 -1.2123334
17.869862 0.90277612 -1.212624
18.157986 0.86280715 -1.2109429
18.394751 0.87001669 -1.21025
18.616903 0.88468057 -1.2111388
18.895746 0.86879671 -1.2139267
19.150616 0.88714999 -1.2171167
19.372604 0.85402083 -1.2219375
19.604292 0.87180561 -1.2244306
19.887434 0.84093207 -1.2079226
20.128851 0.88319391 -1.1624094
20.413816 0.87589282 -1.1137143
20.631021 0.87338144 -1.096644
20.877501 0.88455003 -1.079
21.112005 0.89066118 -1.067814
21.376266 0.86896664 -1.0560833
21.641436 0.89678335 -1.0488639
21.884102 0.87046671 -1.0376832
22.085026 0.87316668 -1.0327734
22.348776 0.87094277 -1.0308928
22.6215 0.89034724 -1.0269306
22.862722 0.86336112 -1.0198611
23.117765 0.88293332 -1.0177667
23.348511 0.88732141 -1.0108929
23.574936 0.93326664 -1.0060834
23.883333 0.93066669 -1.0033332
24.044998 0.95625001 -1.0044999
-4.0818243 1.1096348 -1.2351418
-3.9028306 1.1049292 -1.2090696
2.7461855 1.1455995 -1.2497433
2.866086 1.1162534 -1.2463964
3.1158631 1.1326034 -1.2382973
3.3634098 1.1146903 -1.2314883
3.611433 1.1472507 -1.2332002
3.8529072 1.1012253 -1.2184395
4.1234851 1.132622 -1.2015737
4.3505406 1.1369177 -1.1968268
4.6492667 1.1487287 -1.1846981
4.8995194 1.1483356 -1.1833555
5.1309576 1.0898577 -1.1837742
5.3800631 1.1494701 -1.1900066
5.6525869 1.1103802 -1.1983564
5.8606672 1.1606604 -1.2039342
6.1483684 1.1206557 -1.2171477
6.3982911 1.1494787 -1.2223871
6.6297565 1.1153039 -1.2206126
6.8791251 1.1479965 -1.2156667
7.1227484 1.1485779 -1.2107277
7.3807569 1.1148341 -1.208972
7.6377549 1.1371961 -1.2079704
7.8689651 1.1289587 -1.2060522
8.1352463 1.1373249 -1.2052886
8.383378 1.1480781 -1.2059944
8.6535854 1.1099937 -1.2047822
8.8807192 1.0982354 -1.2015369
9.1220684 1.1381556 -1.1997617
9.368845 1.1221159 -1.1990411
9.622118 1.1487002 -1.1983501
9.8664455 1.1419151 -1.1992393
10.145844 1.1209137 -1.2005323
10.88919 1.1637459 -1.2056625
11.115169 1.1846679 -1.2079874
11.376163 1.1920607 -1.208156
11.668396 1.2038125 -1.2090626
17.916668 1.0278333 -1.2141666
18.148445 1.0300001 -1.2142223
18.39875 1.0383333 -1.2136667
18.613899 1.0276999 -1.2149999
18.854715 1.0478572 -1.2168572
20.864016 1.1335282 -1.101323
21.135035 1.1531912 -1.075341
21.398335 1.0851251 -1.0694792
21.604612 1.0967376 -1.0630625
21.862179 1.08518 -1.05022
22.117868 1.0919167 -1.0440667
22.342854 1.1522292 -1.044625
22.577686 1.149 -1.0413749
22.872139 1.1230973 -1.0360833
23.125254 1.1561999 -1.0332001
23.390791 1.1437055 -1.0213112
23.606165 1.1875 -1.0174999
23.848801 1.1275223 -1.0140444
24.098957 1.0954583 -1.0090834
24.328375 1.1584584 -1.0051528
24.500999 1.24 -1.0039999
2.9523172 1.2995981 -1.2461729
3.1328411 1.3833934 -1.2396151
3.3639276 1.3515924 -1.2374744
3.6356075 1.3674077 -1.2354325
3.8790765 1.3650119 -1.2219461
4.1348882 1.3675774 -1.2033963
4.3624539 1.395927 -1.1991836
4.584877 1.4080298 -1.1952273
4.8655381 1.4113789 -1.1910536
5.1424561 1.3687171 -1.1954967
5.3600421 1.4207194 -1.1987551
5.6565313 1.3765321 -1.1962529
5.870357 1.3868232 -1.200363
6.1336503 1.3742296 -1.2086587
6.4006195 1.4007186 -1.2192334
6.6154494 1.3829564 -1.2203205
6.8502822 1.3651638 -1.2200694
7.1625357 1.3767997 -1.2169609
7.3903284 1.3711927 -1.2158229
7.6459641 1.3990306 -1.2133155
7.9002309 1.3513651 -1.2116519
8.1294613 1.3893566 -1.2111063
8.366807 1.3841423 -1.2109275
8.6338606 1.3785841 -1.2109439
8.8863029 1.3518473 -1.2084727
9.135334 1.3664365 -1.2055104
9.3706808 1.3462293 -1.2031364
9.6340733 1.3402709 -1.2018625
9.8829393 1.3678753 -1.2032567
10.118133 1.3651847 -1.2052289
10.366858 1.3362296 -1.2050368
10.615606 1.3846887 -1.206338
10.848695 1.366909 -1.2066083
11.133637 1.380725 -1.2105319
11.363965 1.3491253 -1.2109176
11.632167 1.3629035 -1.2129247
11.911894 1.3726298 -1.215853
13.901386 1.4547358 -1.2141787
14.155545 1.4745998 -1.2152333
14.379333 1.4854167 -1.2154167
21.4505 1.2590001 -1.0785
21.609501 1.2685 -1.0710001
21.877249 1.284 -1.0615001
22.215 1.311 -1.056
22.489 1.327 -1.054
22.525 1.3150001 -1.052
23.271 1.2589999 -1.03
23.527752 1.2609999 -1.0225
23.894501 1.293 -1.0225
24.145666 1.29375 -1.0158334
24.398169 1.3088332 -1.0099999
24.694666 1.3190001 -1.0036668
-6.4627972 1.7029687 -1.0928357
3.1653638 1.6066936 -1.2451476
3.3842003 1.6326352 -1.2360499
3.6488748 1.6207484 -1.2265322
3.8899059 1.6278899 -1.218518
4.1214199 1.6479319 -1.211301
4.386025 1.6080449 -1.2039498
4.6342778 1.6157197 -1.1987679
4.8879967 1.6364625 -1.1980792
5.122169 1.6237357 -1.2044222
5.3771572 1.6233646 -1.2015094
5.6249294 1.6377786 -1.1987152
5.9051037 1.6358585 -1.2008621
6.1093998 1.6325169 -1.2078524
6.3645878 1.6492224 -1.2187217
6.5873809 1.6297163 -1.2230952
6.8500781 1.621137 -1.2257336
7.1234002 1.6455871 -1.2285588
7.3508024 1.6359875 -1.2253627
7.6588359 1.6222525 -1.2196124
7.9019217 1.601312 -1.2188176
8.1333866 1.6313459 -1.2170725
8.368701 1.6158117 -1.2161118
8.6357927 1.6366174 -1.2155008
8.8828592 1.6494156 -1.2142104
9.1351662 1.617928 -1.2106997
9.3641605 1.6605918 -1.2096604
9.6003942 1.64788 -1.2085906
9.8538094 1.6366569 -1.2091408
10.147236 1.6138333 -1.2107303
10.366403 1.6332194 -1.2117842
10.621282 1.6622802 -1.2116578
10.848966 1.6021851 -1.21055
11.097539 1.59812 -1.2130562
11.336287 1.6200489 -1.2159729
11.636532 1.6593075 -1.2190832
11.866723 1.589431 -1.2177427
12.135607 1.6356591 -1.2196255
12.403214 1.6018881 -1.2176734
12.618868 1.6448679 -1.2170117
12.88665 1.6152054 -1.2190121
13.125877 1.5861385 -1.2205967
13.370539 1.6475304 -1.2200822
13.636381 1.636079 -1.2174859
13.898464 1.6013598 -1.2158071
14.089413 1.6473988 -1.2158496
14.368788 1.6365629 -1.2165546
14.655024 1.6182688 -1.2185658
14.904884 1.6576468 -1.2222708
-6.6116757 1.8449013 -1.0606663
3.3992984 1.8512831 -1.2467856
3.616904 1.8501321 -1.2368082
3.864388 1.8778574 -1.2286627
4.1639438 1.8787471 -1.2204812
4.4019179 1.8995293 -1.22006
4.6597958 1.8639429 -1.2052002
4.8797884 1.8636692 -1.2010528
5.115191 1.873873 -1.2041787
5.4073877 1.8746893 -1.2034101
5.6187921 1.86874 -1.2003921
5.8371143 1.8627938 -1.2038623
6.127564 1.9084988 -1.2157391
6.3702407 1.8911241 -1.2235767
6.6470881 1.8790362 -1.2271959
6.8800488 1.8513551 -1.229431
7.1242638 1.8884315 -1.2303746
7.3806605 1.8805143 -1.2286249
7.6182857 1.8506706 -1.2260545
7.8766313 1.8645791 -1.2242438
8.1158571 1.8663219 -1.2220415
8.3645868 1.866191 -1.2205946
8.6304493 1.9077374 -1.2198948
8.8638048 1.8654804 -1.2174033
9.1326923 1.8790505 -1.2162532
9.4054012 1.9033382 -1.2154912
9.6007481 1.8991776 -1.2158366
9.8560562 1.8791443 -1.2156696
10.120772 1.8634492 -1.2173618
10.382206 1.8677922 -1.2175325
10.601915 1.9005566 -1.2166945
10.862945 1.8629169 -1.2146167
11.100834 1.8545307 -1.2156175
11.365392 1.8636079 -1.2181563
11.626722 1.9083812 -1.2216045
11.877116 1.8500611 -1.2224054
12.152448 1.8655583 -1.2222754
12.37636 1.8653725 -1.2206362
12.657793 1.8763975 -1.2215941
12.885203 1.8681476 -1.223519
13.124871 1.8691194 -1.2261242
13.364234 1.865008 -1.2239524
13.646134 1.8992553 -1.2215754
13.882255 1.8341005 -1.2194226
14.145321 1.8666021 -1.2184883
14.368953 1.9094639 -1.2187321
14.610668 1.8526335 -1.2198334
14.84637 1.9013071 -1.224156
15.142114 1.8777406 -1.2256334
15.385953 1.8573055 -1.2261018
15.6419 1.8859729 -1.2285637
15.889027 1.8711481 -1.2313296
16.15159 1.8809434 -1.2320715
16.389158 1.8518153 -1.2315881
16.62838 1.8631853 -1.2298032
18.6383 1.9607334 -1.2305
18.898499 1.9757501 -1.23175
19.1115 1.9844999 -1.2305
-40.503502 2.1715 -1.0406251
-40.476852 2.202333 -1.1356332
3.6486766 2.0819905 -1.2476989
3.8685431 2.0890148 -1.2393869
4.0981064 2.1484346 -1.2361984
4.3626437 2.1369059 -1.2298169
4.6210208 2.1635017 -1.2206692
4.8592024 2.1236596 -1.2112079
5.1327114 2.1164038 -1.210578
5.3639297 2.1604156 -1.2125169
5.6360407 2.1360092 -1.2111672
5.8864002 2.1294188 -1.2140719
6.1336622 2.1324925 -1.2228334
6.3722739 2.1107242 -1.2291317
6.6003666 2.1484623 -1.2305299
6.8495364 2.1499491 -1.2323076
7.1325564 2.1337855 -1.2335275
7.3753848 2.1469462 -1.2322979
7.6171317 2.1609988 -1.2319466
7.8498168 2.0985496 -1.2294914
8.1345472 2.1489797 -1.2270049
8.377738 2.1362064 -1.2244295
8.6003056 2.1481996 -1.223457
8.8483181 2.0998909 -1.2220349
9.1277466 2.1373608 -1.2203947
9.3850012 2.129909 -1.2197646
9.6364489 2.1360693 -1.2211512
9.8812218 2.147938 -1.2231565
10.114047 2.1464694 -1.2249848
10.351726 2.1003926 -1.2235494
10.633351 2.1368227 -1.2211944
10.909057 2.1292837 -1.2201016
11.092794 2.1304111 -1.2201632
11.36762 2.1202137 -1.2210051
11.583359 2.1276803 -1.2228422
11.836814 2.117944 -1.2272475
12.135812 2.1330233 -1.2262022
12.381923 2.1335518 -1.2243103
12.640373 2.1208386 -1.2239019
12.894404 2.1295421 -1.2272202
13.134748 2.1487503 -1.230414
13.369581 2.0888817 -1.2297274
13.629333 2.1242149 -1.2262819
13.898482 2.1455271 -1.2242669
14.112317 2.1305654 -1.2227566
14.351506 2.1184597 -1.2223265
14.601205 2.1522114 -1.1722544
14.881097 2.1209447 -1.2204443
15.131228 2.1078701 -1.2292131
15.366639 2.1518404 -1.2297881
15.590983 2.1257541 -1.2307316
15.863288 2.1385021 -1.2329708
16.133888 2.1232359 -1.2344835
16.3887 2.1291866 -1.2347268
16.622944 2.1024141 -1.2336692
16.872715 2.1364281 -1.2333763
17.134792 2.1348071 -1.2319964
17.379496 2.1456513 -1.2326921
17.639975 2.1148334 -1.2316905
17.9049 2.1504965 -1.2311136
18.146469 2.1139524 -1.2307142
18.398952 2.1089706 -1.2315708
18.617214 2.1253142 -1.2328072
18.840061 2.1168952 -1.2321118
19.113808 2.1236973 -1.2316583
19.356501 2.117264 -1.2313334
20.350418 2.1964166 -1.2315416
3.9493995 2.2508683 -1.246514
4.1960273 2.3471923 -1.2476454
4.3681817 2.3703775 -1.2413676
4.6306272 2.3893466 -1.2351195
4.8709435 2.4112034 -1.2318877
5.115191 2.3663702 -1.2243786
5.3710485 2.4081378 -1.2277044
5.6458874 2.3965411 -1.2308617
5.8858342 2.3530681 -1.233192
6.13662 2.385319 -1.2382463
6.376687 2.3496277 -1.2352735
6.6268396 2.3899646 -1.2351542
6.8726263 2.4091697 -1.2362292
7.1301289 2.3839016 -1.2360785
7.3700395 2.3868599 -1.2363609
7.6504459 2.3979225 -1.2371894
7.9014211 2.3499758 -1.2336751
8.1348581 2.3663871 -1.2313613
8.3680639 2.4108453 -1.2296678
8.6462708 2.3989916 -1.2268181
8.8828306 2.3375428 -1.2255429
9.1535196 2.3664355 -1.2246877
9.3837776 2.3840759 -1.2249417
9.6313162 2.4118028 -1.2274257
9.8648367 2.3657715 -1.2283548
10.133416 2.3671 -1.229854
10.382294 2.364502 -1.2304295
10.630122 2.4091992 -1.2309669
10.846979 2.3542061 -1.2274477
11.144584 2.3499954 -1.2261755
11.370426 2.3846867 -1.2271596
11.611925 2.3711455 -1.228672
11.860495 2.3624306 -1.2320349
12.145394 2.3784926 -1.2313554
12.398142 2.3694136 -1.2276409
12.643933 2.3660746 -1.2279894
12.907606 2.3758655 -1.2326928
13.116519 2.3683276 -1.2344377
13.367502 2.3650451 -1.2342451
13.63107 2.368113 -1.2327225
13.852792 2.3832123 -1.2309912
14.079518 2.3703263 -1.2289213
14.35202 2.3643444 -1.228387
14.622698 2.3545101 -1.2289501
14.872756 2.378742 -1.2333082
15.086307 2.3677917 -1.232394
15.360878 2.411134 -1.2337023
15.648455 2.3744938 -1.2338442
15.910463 2.3918214 -1.2346339
16.137236 2.372654 -1.2352418
16.383041 2.3690193 -1.2364036
16.634457 2.3318594 -1.2369623
16.856375 2.3787723 -1.2361333
17.125694 2.3904054 -1.2359167
17.371449 2.3858361 -1.2362077
17.613241 2.3882639 -1.2341973
17.857378 2.3488333 -1.2325884
18.121883 2.3652761 -1.2320219
18.370726 2.3715544 -1.2331083
18.61689 2.3905723 -1.2342612
18.89525 2.3523891 -1.2331945
19.137379 2.3764389 -1.2333223
19.38236 2.3830211 -1.2323118
19.633785 2.3490596 -1.2324644
19.902802 2.3551252 -1.2340583
20.162737 2.3922083 -1.2357556
20.415058 2.3689866 -1.2352301
20.638088 2.36096 -1.2320334
20.872049 2.39275 -1.2290714
21.121416 2.3592834 -1.23005
22.605362 2.425 -1.1139166
22.876734 2.4302666 -1.1073999
23.071665 2.4492223 -1.1008888
23.338001 2.4803333 -1.0976667
4.4214926 2.6234822 -1.2483985
4.6459994 2.5975909 -1.2448294
4.8709531 2.5896254 -1.2425408
5.162827 2.6208749 -1.2392141
5.3892837 2.6297817 -1.2395217
5.617857 2.6352813 -1.2445817
5.8803978 2.6168725 -1.2464195
6.1447611 2.6384537 -1.2433388
6.4053559 2.6271586 -1.2391093
6.646215 2.6210287 -1.2391785
6.9025574 2.6491053 -1.2412227
7.1329837 2.6319833 -1.2410284
7.3701072 2.5906653 -1.2411779
7.6228132 2.6334057 -1.2416742
7.8792729 2.6473987 -1.2399968
8.0879974 2.6285224 -1.2373005
8.3370762 2.6349084 -1.2344906
8.6488247 2.6198089 -1.2316189
8.8929005 2.6291766 -1.2306012
9.1317673 2.6219559 -1.2296358
9.4111013 2.6285777 -1.2298419
9.6447735 2.6361878 -1.2311118
9.8898945 2.6323311 -1.2328466
10.130205 2.6320941 -1.2338154
10.346997 2.6129284 -1.2350366
10.649681 2.6497927 -1.2366232
10.888727 2.6289454 -1.2355187
11.134068 2.6489551 -1.2350556
11.368879 2.5907292 -1.2328552
11.616142 2.6181943 -1.2329959
11.860303 2.6461904 -1.2349094
12.162447 2.6214375 -1.2349089
12.399884 2.6498356 -1.2331548
12.627845 2.6313324 -1.2317393
12.898116 2.5987766 -1.234249
13.10352 2.6469252 -1.2363664
13.347589 2.6356599 -1.2376515
13.650307 2.6386158 -1.2392367
13.916232 2.6286964 -1.2412467
14.134718 2.607681 -1.2358778
14.359527 2.616133 -1.2357426
14.61764 2.6470542 -1.2372428
14.880554 2.6134241 -1.236174
15.116524 2.6317766 -1.2359071
15.38436 2.6320965 -1.237168
15.613737 2.6102433 -1.2359917
15.865647 2.6343701 -1.236213
16.132959 2.6335905 -1.2359446
16.373243 2.6191971 -1.2367055
16.638277 2.651062 -1.2386429
16.882118 2.6342502 -1.2383265
17.111385 2.637507 -1.2392267
17.371611 2.6130002 -1.2389444
17.632132 2.642118 -1.2379571
17.880127 2.5814586 -1.234625
18.131084 2.58465 -1.2353166
18.375767 2.6095932 -1.235922
18.621881 2.6214261 -1.2360429
18.862665 2.6269915 -1.2355722
19.090092 2.6317401 -1.23505
19.366486 2.6141145 -1.2344285
19.592041 2.6424723 -1.2358055
19.863388 2.6415596 -1.2373406
20.121479 2.5875735 -1.23892
20.377974 2.6268613 -1.2404
20.603939 2.6273065 -1.2381301
20.852489 2.6315207 -1.2349792
21.128855 2.6298628 -1.2326708
21.349415 2.642107 -1.233881
21.590733 2.6205833 -1.2360834
21.806801 2.6115334 -1.2420667
22.147165 2.5970078 -1.2202207
22.356916 2.6445568 -1.1782842
22.64735 2.61515 -1.1238358
22.868031 2.6198175 -1.0921276
23.033667 2.529 -1.1053333
23.328938 2.5671875 -1.1019375
23.59528 2.6129067 -1.0963933
23.856501 2.6209285 -1.0888095
24.10025 2.6937499 -1.08575
4.448041 2.8937142 -1.2489972
4.6665535 2.8815918 -1.249392
4.8504963 2.7510591 -1.2495484
5.1475415 2.7833719 -1.2490593
5.4095135 2.8707888 -1.2472966
5.649231 2.8766749 -1.2445793
5.8657284 2.8501987 -1.2446514
6.1318946 2.8658276 -1.2440375
6.365757 2.8849289 -1.2435391
6.6166034 2.8837159 -1.2454361
6.8505249 2.8667619 -1.2468812
7.1058569 2.8515639 -1.2470958
7.3680305 2.8172004 -1.2465379
7.6602793 2.878263 -1.2468188
7.9001203 2.9023871 -1.245141
8.1458864 2.8767555 -1.2430228
8.4121914 2.8677111 -1.2407411
8.6456852 2.8627803 -1.2379445
8.9084826 2.8696804 -1.2368568
9.1587992 2.8623004 -1.2344776
9.3899479 2.868082 -1.2346638
9.6460466 2.8765533 -1.235833
9.9032383 2.8687751 -1.2368
10.129205 2.879437 -1.2387953
10.397244 2.8510611 -1.2392627
10.628681 2.8882024 -1.2403208
10.883037 2.8800058 -1.2401232
11.132733 2.8708971 -1.2405534
11.37757 2.8652747 -1.2388513
11.627604 2.8857794 -1.2379652
11.867851 2.8653944 -1.2373539
12.126967 2.8632514 -1.2372364
12.398376 2.899219 -1.2376668
12.64938 2.865648 -1.2361379
12.882159 2.864336 -1.2356436
13.12852 2.8873756 -1.2372768
13.387138 2.8773801 -1.2395285
13.635918 2.879499 -1.2402773
13.894411 2.8728085 -1.2433945
14.121814 2.8491364 -1.2447976
14.362444 2.8654001 -1.2426859
14.62989 2.8692539 -1.2399112
14.854728 2.8788676 -1.2383231
15.105608 2.8647251 -1.237738
15.340387 2.8798335 -1.2396395
15.620511 2.8677323 -1.2391148
15.869988 2.8654034 -1.2375842
16.112045 2.8684342 -1.2378153
16.366137 2.8654544 -1.2385594
16.631556 2.8865278 -1.2403771
16.865156 2.8646908 -1.2412541
17.122883 2.8654239 -1.2428358
17.350582 2.868022 -1.2434604
17.6161 2.8709998 -1.2408501
17.861094 2.8728185 -1.2397658
18.121279 2.8672466 -1.2392584
18.360785 2.8897116 -1.2401913
18.658234 2.8857548 -1.2400881
18.913437 2.9005313 -1.2379062
19.128532 2.8541667 -1.2365333
19.367371 2.8297167 -1.2368801
19.557917 2.8972499 -1.2385833
19.837189 2.8436458 -1.2396874
20.09 2.8327 -1.2406667
20.341404 2.857857 -1.2437023
20.625448 2.8700256 -1.2427548
20.883316 2.8655999 -1.2393334
21.136429 2.8888452 -1.2389525
21.406534 2.8717999 -1.2375333
21.650471 2.8784046 -1.2344
21.875778 2.9267223 -1.2369443
22.117746 2.8695834 -1.2416945
22.389755 2.8493946 -1.2382945
22.580847 2.8569553 -1.2041705
22.836468 2.8773344 -1.1565087
23.089584 2.8396778 -1.1252944
23.370367 2.8699501 -1.1173834
23.617943 2.8865812 -1.0847952
23.880388 2.8755558 -1.0990555
24.157501 2.8456666 -1.0938889
24.3937 2.8655 -1.08935
24.646252 2.8671999 -1.08295
24.915733 2.8705335 -1.0767334
26.589249 2.967 -1.0405
26.789 2.961 -1.038
27.06875 2.9812498 -1.0225
1.2450367 3.1446044 -1.1707264
1.4454384 3.1425374 -1.2403637
1.541579 3.1426659 -1.2426565
4.4468112 3.0995917 -1.2481685
4.5893073 3.1282246 -1.2476972
4.8121381 3.1288559 -1.248893
5.4255371 3.1240418 -1.2481595
5.6356401 3.147939 -1.2463659
5.8790369 3.1345241 -1.2453886
6.1214175 3.1319191 -1.2460823
6.3290992 3.1303964 -1.2477634
6.5968275 3.050056 -1.2491686
7.6454096 3.0453641 -1.249909
7.8731499 3.0764267 -1.2488041
8.128293 3.1277595 -1.2478658
8.3644648 3.1355088 -1.2466623
8.6367788 3.1347575 -1.2449576
8.8831873 3.132159 -1.2430073
9.147294 3.1145937 -1.2413011
9.3700123 3.1093917 -1.2395923
9.6269798 3.1114621 -1.23955
9.8520432 3.1359317 -1.2411156
10.145535 3.1186025 -1.2417382
10.381786 3.1494024 -1.2429234
10.621483 3.1310143 -1.2433585
10.861416 3.1305897 -1.2433604
11.112042 3.1291924 -1.2450759
11.363791 3.1201949 -1.2442014
11.647285 3.1004565 -1.2422925
11.879697 3.1624737 -1.2443926
12.108563 3.1325963 -1.2438656
12.363641 3.1199875 -1.2423606
12.620345 3.1455688 -1.2410314
12.88051 3.0889373 -1.239589
13.107346 3.1497266 -1.2406008
13.355086 3.1176999 -1.2410933
13.610785 3.1270101 -1.2442917
13.8607 3.0971372 -1.246272
14.124659 3.0893662 -1.2488844
14.368388 3.1310546 -1.2471011
14.604362 3.1481619 -1.2444398
14.838755 3.1345692 -1.2425138
15.129351 3.1614797 -1.2431895
15.366385 3.1204069 -1.2425104
15.647861 3.1231687 -1.2431756
15.885922 3.1550868 -1.2418597
16.116331 3.1238918 -1.2408067
16.375355 3.136344 -1.2415977
16.620289 3.1209564 -1.2426604
16.866026 3.1196668 -1.2445024
17.108921 3.1279597 -1.244331
17.345873 3.1292565 -1.2449062
17.599335 3.1271834 -1.2462502
17.866014 3.1388574 -1.2439771
18.137022 3.1170285 -1.2433834
18.386976 3.1451313 -1.243881
18.646852 3.1121929 -1.2421286
18.903978 3.1232202 -1.2406033
19.123501 3.1282382 -1.2401905
19.384686 3.1127145 -1.2405429
19.611055 3.1385279 -1.2417779
19.842701 3.1858084 -1.2422835
20.107054 3.1673865 -1.244
20.388149 3.1463501 -1.2456
20.598125 3.098 -1.2455
20.863585 3.1278334 -1.2448334
21.1525 3.0715752 -1.244475
21.431833 3.1013889 -1.2422777
21.637085 3.0736876 -1.2407501
21.891207 3.135875 -1.2409166
22.120708 3.1208417 -1.2395667
22.384569 3.0959861 -1.2404584
22.62443 3.1469443 -1.2425417
22.881086 3.0791581 -1.2180882
23.112364 3.1422391 -1.1833344
23.339787 3.1201432 -1.1385952
23.635239 3.1394405 -1.1233928
23.882067 3.1627665 -1.1186
24.155073 3.1127026 -1.1123215
24.372429 3.1297917 -1.1039208
24.578501 3.1439285 -1.0985001
24.849234 3.1703668 -1.0934334
25.13895 3.1184335 -1.0817333
25.390833 3.1938334 -1.0775
25.628265 3.1600444 -1.0693111
25.881166 3.0685833 -1.0572499
26.160751 3.101125 -1.0523125
26.359667 3.0936668 -1.0493332
26.649208 3.1410837 -1.05075
26.936115 3.1296749 -1.0434418
27.085094 3.129081 -1.0265548
0.92700392 3.3975818 -1.0692306
1.2060719 3.3930662 -1.1372622
1.2536298 3.3103738 -1.149734
1.6123265 3.3355331 -1.2384984
4.446538 3.3031182 -1.2488953
4.6496811 3.3704998 -1.2480108
4.8499579 3.3665226 -1.2482734
5.1461077 3.3886082 -1.2495412
5.3893261 3.3705726 -1.2484572
5.6310868 3.365114 -1.2472082
5.8690844 3.4107795 -1.248728
6.1458268 3.3479946 -1.2489218
6.3454041 3.2508295 -1.2494894
8.6135912 3.3173735 -1.2485051
8.8514509 3.3235421 -1.248203
9.1506166 3.3333342 -1.2475365
9.4024153 3.3513944 -1.2451212
9.6341734 3.3639843 -1.2445002
9.9093952 3.3716385 -1.2447811
10.131562 3.3794219 -1.246053
10.387232 3.3704269 -1.2463011
10.648282 3.3663361 -1.24738
10.8843 3.3828499 -1.247595
11.131682 3.3321192 -1.247939
11.377713 3.3195095 -1.2469577
11.612523 3.3299613 -1.2478483
11.853985 3.3547437 -1.249318
12.151034 3.3292301 -1.248646
12.37729 3.3018177 -1.2472973
12.651633 3.3797436 -1.2460051
12.867704 3.3530459 -1.2442478
13.157596 3.3799844 -1.2429912
13.413432 3.3676193 -1.2438909
13.612086 3.3847725 -1.2441865
13.862413 3.3326583 -1.2473714
14.081573 3.350867 -1.2491786
14.369441 3.3796618 -1.2488352
14.628452 3.4080651 -1.2477382
14.913289 3.3670208 -1.2453334
15.1213 3.3894501 -1.2474
15.371722 3.3777473 -1.2463809
15.63748 3.3902864 -1.2086066
15.895824 3.3803439 -1.2444937
16.129583 3.3599761 -1.2444941
16.379074 3.4030082 -1.2455417
16.621634 3.3534019 -1.2451533
16.866638 3.3920195 -1.2470473
17.111822 3.3650539 -1.2476033
17.394138 3.3821399 -1.2483628
17.633755 3.33797 -1.2482643
17.8459 3.4043424 -1.2479968
18.134274 3.3670144 -1.2454952
18.376575 3.3828068 -1.2455232
18.651291 3.3529019 -1.2447093
