# .PCD v0.7 - Point Cloud Data file format
VERSION 0.7
FIELDS x y z
SIZE 4 4 4
TYPE F F F
COUNT 1 1 1
WIDTH 63
HEIGHT 1
VIEWPOINT -18.2321 96.2205 -1.35163 -0.354149 -0.00701479 0.0211809 0.934923
POINTS 63
DATA ascii
16.954624 66.704498 -1.57775
17.122702 66.590324 -1.5726668
16.703667 66.933327 -1.5863333
16.845715 66.845787 -1.5725714
17.022499 66.772003 -1.505
17.168455 66.681549 -1.3707279
16.906992 66.905014 -1.3947222
17.040333 66.81234 -1.3588333
16.657551 67.132263 -1.3924313
16.80875 67.019501 -1.36825
16.933239 66.915955 -1.1291624
17.063791 66.800087 -1.1399862
16.669163 67.151909 -1.1444596
16.788168 67.044868 -1.1223667
16.938782 66.925507 -0.86243749
17.067583 66.80854 -0.85254163
16.677689 67.155151 -0.86200005
16.7915 67.053345 -0.87080002
16.921549 66.949295 -0.63309997
17.069813 66.817566 -0.60625005
16.664034 67.179428 -0.62553567
16.80975 67.047104 -0.63714999
16.940306 66.939919 -0.39711669
17.082676 66.811882 -0.41405836
16.675472 67.179276 -0.37393093
16.806265 67.062935 -0.3637639
16.928041 66.960625 -0.14458729
17.086195 66.820335 -0.12392382
16.691463 67.173531 -0.14314285
16.796087 67.081436 -0.085550003
16.587999 67.325996 -0.035999998
16.940823 66.95874 0.10232143
16.689434 67.183067 0.097608343
16.842926 67.047302 0.11190001
16.5765 67.279335 0.13433333
16.948189 66.96019 0.35337773
17.101162 66.826218 0.36180624
16.689518 67.191673 0.34973058
16.858311 67.043686 0.39162499
16.578999 67.288254 0.41191667
16.968834 66.955078 0.64000005
17.098925 66.839874 0.65317422
16.70285 67.1912 0.62826669
16.869749 67.043198 0.63255
16.581251 67.297371 0.66012496
16.972351 66.959396 0.88810003
16.698305 67.204689 0.84711117
16.862028 67.058838 0.87713891
16.608051 67.288048 0.88219994
16.907904 66.914352 1.1885239
17.096167 66.835709 1.09825
16.650234 67.155998 1.1579335
16.811535 67.084267 1.094425
16.600916 67.27858 1.0836667
16.671534 67.169151 1.3245001
16.838179 67.079071 1.3862562
16.441124 67.449127 1.41725
16.594376 67.305313 1.3943958
16.337667 67.540665 1.4265
16.7085 67.209503 1.5565
16.4415 67.451996 1.527
16.579834 67.33091 1.5247501
16.326 67.559532 1.5833334
