# .PCD v0.7 - Point Cloud Data file format
VERSION 0.7
FIELDS x y z
SIZE 4 4 4
TYPE F F F
COUNT 1 1 1
WIDTH 300
HEIGHT 1
VIEWPOINT -18.2321 96.2205 -1.35163 -0.354149 -0.00701479 0.0211809 0.934923
POINTS 300
DATA ascii
7.1099997 68.985504 17.087999
7.3766999 68.978401 17.126999
7.6719999 68.982002 17.136
7.8675003 68.995003 17.165501
8.126667 68.980331 17.164999
7.3748002 69.005203 17.141199
7.6462226 69.014671 17.146112
7.9028335 69.018333 17.131834
8.1131001 69.036705 17.106701
5.8654165 68.939735 17.417416
6.1224408 68.93998 17.387392
6.4309998 68.959106 17.412111
6.5686669 68.980324 17.427668
6.870542 68.989113 17.404985
7.1246667 68.992165 17.385668
7.52 68.955002 17.316
6.9493332 69.002335 17.396835
7.1057916 69.00705 17.429916
7.3859048 69.019775 17.348989
7.7051249 69.035934 17.396313
7.8921247 69.046333 17.365334
8.0691671 69.050423 17.41925
8.3239002 69.059998 17.420099
5.1192002 68.916206 17.569998
5.3495002 68.928001 17.651375
5.6627502 68.920502 17.655125
5.9044442 68.953117 17.631556
6.0877914 68.940582 17.61521
6.3759522 68.981392 17.616982
6.5721006 68.985046 17.623585
6.8473334 68.990501 17.647165
7.086 68.998001 17.507
7.3769999 68.998001 17.537001
7.5684996 68.980499 17.693501
7.8600001 68.981003 17.681999
6.9373055 69.011391 17.602472
7.1741662 69.014915 17.650667
7.2779999 69.030998 17.667999
7.62995 69.039406 17.634899
7.8898749 69.055313 17.584499
8.1671495 69.059647 17.579599
8.37082 69.079689 17.642807
8.6387777 69.088112 17.584887
4.8899999 68.917999 17.759001
5.177 68.917328 17.811666
5.267333 68.914169 17.779835
5.8426666 68.967003 17.78196
6.1539998 68.978996 17.764
6.4490004 68.990494 17.797501
7.2290001 68.995003 17.756001
6.4489999 69.004997 17.806
6.5009999 69.005997 17.756001
7.0933328 69.019997 17.805
7.7223334 69.048668 17.8095
7.8210001 69.039001 17.802999
8.0510006 69.060333 17.758001
8.3249998 69.080872 17.787376
8.6370001 69.101501 17.762001
4.8930001 68.992996 18.139999
5.2319999 68.987 18.135
4.8452997 69.034248 18.192799
5.1184163 69.042252 18.193083
5.3555999 69.040451 18.188
5.6528001 69.062546 18.200998
5.894125 69.081619 18.213875
6.1275001 69.087601 18.1971
6.3994999 69.097008 18.182501
6.5956669 69.117584 18.211166
6.8810334 69.134567 18.196835
7.1294165 69.126602 18.190067
7.3486328 69.15947 18.211901
7.6068749 69.175621 18.210625
7.8616672 69.177422 18.200167
8.0898333 69.194664 18.205833
8.3754997 69.196938 18.18475
8.6236 69.209396 18.190502
8.8753748 69.21125 18.165749
4.8682604 69.102959 18.377077
5.1110716 69.103714 18.360678
5.3569169 69.109222 18.3703
5.6499476 69.118172 18.354633
5.8618751 69.132118 18.363207
6.1407771 69.146828 18.351648
6.3979402 69.165787 18.36937
6.6192145 69.181679 18.398037
6.9025283 69.223228 18.376638
7.135334 69.183289 18.382586
7.3520498 69.225204 18.392452
7.6428337 69.222588 18.3295
7.8640838 69.220985 18.312582
8.1134996 69.22908 18.296709
8.3045006 69.221878 18.253374
6.7275 69.279625 18.400375
6.883688 69.289444 18.355625
7.0341249 69.285126 18.386999
7.4485002 69.250999 18.458
7.6143503 69.262405 18.4578
7.866694 69.272972 18.453222
8.1418962 69.280884 18.425064
8.3590555 69.276039 18.399931
8.6272507 69.295227 18.41118
8.8677406 69.290459 18.353741
4.870862 69.18222 18.596006
5.1152501 69.19957 18.625931
5.3632503 69.199463 18.617743
5.6176996 69.204605 18.59515
5.8533335 69.210907 18.591131
6.1193199 69.22403 18.584112
6.3937502 69.229622 18.553375
6.6245832 69.194176 18.617384
6.7952499 69.19075 18.578085
7.1391878 69.20475 18.622314
5.4675002 69.252502 18.7495
5.6599998 69.252754 18.738499
5.8606668 69.264 18.740225
6.1728125 69.271225 18.716022
6.7283335 69.261673 18.677334
6.8944998 69.269981 18.646284
7.0361667 69.297668 18.646458
7.3456664 69.300041 18.614075
7.5993452 69.313988 18.610239
7.8805108 69.323364 18.598637
8.1102915 69.35424 18.646889
8.376771 69.355835 18.631353
8.6073666 69.367584 18.621668
8.8334999 69.383133 18.620094
4.8920002 69.229752 18.753876
5.1705003 69.245499 18.753
5.2715001 69.243752 18.752251
4.9455552 69.287445 18.910667
5.0808473 69.294098 18.905521
5.3720522 69.29715 18.897177
5.6216249 69.299812 18.876541
5.8767085 69.311508 18.887251
6.1043544 69.332375 18.903208
7.0335002 69.268295 18.811733
7.6321335 69.403526 18.862101
7.8600473 69.414673 18.861002
8.1315002 69.429459 18.859907
8.3923607 69.436714 18.860445
8.6202669 69.457626 18.878496
8.7622509 69.441452 18.798332
4.96 69.364998 19.034
5.1241188 69.362297 19.114641
5.3932481 69.385979 19.149675
5.5976472 69.380585 19.10918
5.8783417 69.39653 19.132757
6.1153808 69.406921 19.110477
7.6167498 69.4776 19.078848
7.8865004 69.476501 19.044498
8.0745001 69.488495 19.047001
8.3331671 69.494835 19.032667
7.6452503 69.513458 19.184793
7.8468056 69.519196 19.182362
8.140584 69.526604 19.140615
8.3877926 69.53846 19.154638
8.5961256 69.534447 19.109402
5.1893754 69.448143 19.343794
5.3828125 69.474182 19.386812
5.6165476 69.4645 19.34787
5.8667402 69.472946 19.342865
6.1584787 69.483498 19.326771
5.2119999 69.507004 19.471001
5.39675 69.50975 19.48
5.592 69.508087 19.468834
5.8835001 69.513 19.457834
6.1121669 69.513496 19.42275
7.6122913 69.579384 19.380697
7.8746305 69.585182 19.36725
8.1244583 69.604614 19.368729
8.3673058 69.629944 19.40032
5.23875 69.520996 19.554249
5.3591251 69.565636 19.650429
5.6179271 69.56237 19.629948
5.9003167 69.575378 19.63159
6.1104474 69.585297 19.636356
6.3539162 69.586174 19.613716
7.6003671 69.663719 19.622101
7.8842502 69.682175 19.622322
8.0996666 69.690674 19.613449
8.3462496 69.701309 19.612736
5.4044724 69.647636 19.846262
5.6379995 69.641037 19.853554
5.886167 69.663834 19.883501
6.1134834 69.67485 19.893
6.3745923 69.672028 19.870308
7.3435001 69.731377 19.880812
7.5990829 69.722 19.787251
7.7966666 69.730827 19.7845
8.1088333 69.742752 19.756084
7.4197502 69.761375 19.95825
7.6389999 69.769447 19.915892
7.8950143 69.776871 19.919569
8.1342382 69.794174 19.917833
8.2718897 69.770668 19.838556
5.4705 69.708 20.033001
5.6391435 69.72393 20.081964
5.8939586 69.722549 20.057335
6.1360002 69.734749 20.059999
6.3823748 69.737877 20.057499
5.4575 69.861 20.120499
5.653666 69.780327 20.229666
5.8911252 69.767334 20.177834
6.11905 69.774849 20.174
6.3619666 69.789536 20.197168
6.6326165 69.786804 20.127033
6.8835421 69.782333 20.100708
7.1319494 69.818497 20.141399
7.3584027 69.811806 20.087944
7.6141858 69.827988 20.091017
7.8771615 69.853004 20.127161
8.1092262 69.870804 20.134977
5.6529584 69.865929 20.376215
5.8962779 69.834465 20.358446
6.1291356 69.84198 20.359541
6.3579307 69.853249 20.374556
6.6397343 69.876678 20.380978
6.8925972 69.878151 20.354181
7.125958 69.907906 20.38899
7.3689075 69.899994 20.347082
7.634306 69.92141 20.351166
7.884583 69.941383 20.363028
8.0241671 69.94117 20.349581
5.6929998 69.923004 20.584499
5.8673148 69.923256 20.622869
6.1390328 69.926414 20.605225
6.3768964 69.94323 20.628885
6.6360626 69.961166 20.629917
6.8915834 69.964333 20.595354
7.121067 69.97113 20.574434
7.3654671 69.984138 20.585867
7.6375003 69.988617 20.545334
7.8982501 69.993256 20.530251
5.6370001 70.003998 20.568001
6.9230828 70.011589 20.721418
7.1461663 70.008667 20.671999
7.4109168 70.027504 20.687834
7.6193924 70.030922 20.66007
7.8882704 70.020126 20.607813
5.8685002 69.985794 20.796791
6.1009169 69.989914 20.783335
5.913167 70.031357 20.908333
6.1099997 70.036919 20.905666
6.3714762 70.038025 20.885263
6.6228933 70.037369 20.842285
6.8691068 70.067589 20.905132
7.1328669 70.077087 20.858767
7.3770623 70.098137 20.880949
7.620357 70.107628 20.870237
7.7923126 70.097931 20.850937
5.9401665 70.088669 21.07625
6.1124587 70.101646 21.096479
6.3833146 70.116386 21.106483
6.6138759 70.118538 21.077707
6.8803959 70.132446 21.101084
7.1283212 70.175591 21.147844
7.3691969 70.189461 21.152098
7.6174173 70.191467 21.139111
5.9920001 70.151001 21.250999
6.1191192 70.187927 21.343185
6.3662405 70.202301 21.356871
6.6224999 70.2108 21.353083
6.8605275 70.204781 21.310946
7.0996113 70.232391 21.325388
7.2649994 70.249001 21.35075
6.864861 70.258636 21.44372
7.1184998 70.27533 21.437168
7.3952146 70.285866 21.430655
7.5503335 70.272507 21.378
6.2069783 70.29229 21.623911
6.3624048 70.300507 21.636541
6.6139059 70.318436 21.642969
6.8827753 70.320541 21.608601
7.1223264 70.333389 21.612692
7.3796673 70.34478 21.6094
6.354322 70.38588 21.874109
6.6158123 70.399536 21.873262
6.8745003 70.415886 21.883776
7.140852 70.420082 21.85965
7.3228335 70.427834 21.847834
6.3919997 70.460503 22.084625
6.6369033 70.477013 22.08357
6.8851252 70.475372 22.04925
7.0873752 70.486748 22.046749
7.2589998 70.475998 22.038
6.4420004 70.509506 22.186501
6.6377778 70.519295 22.206625
6.8893332 70.529495 22.202168
7.1524377 70.515869 22.117376
6.4638333 70.54483 22.3095
6.6323333 70.590912 22.423439
6.8815832 70.591148 22.403801
7.0734663 70.580536 22.319801
6.6453748 70.659027 22.614458
6.8567853 70.67382 22.630976
6.7140007 70.731834 22.811417
6.8266668 70.73925 22.84927
6.6830001 70.764999 22.955
6.7567501 70.753754 22.945002
6.7486668 70.762329 23.044003
