# .PCD v0.7 - Point Cloud Data file format
VERSION 0.7
FIELDS x y z
SIZE 4 4 4
TYPE F F F
COUNT 1 1 1
WIDTH 122
HEIGHT 1
VIEWPOINT -18.2321 96.2205 -1.35163 -0.354149 -0.00701479 0.0211809 0.934923
POINTS 122
DATA ascii
-114.60809 -55.354168 5.1150241
-114.7048 -55.199596 5.1587996
-115.311 -54.266998 5.375
-115.351 -54.188 5.3780003
-115.32875 -54.276253 5.6210003
-115.356 -54.19025 5.5782499
-116.6495 -52.024498 5.8675003
-116.7685 -51.985001 5.8760004
-116.60834 -52.040333 6.1220002
-116.467 -52.237999 6.0700002
-116.7285 -51.967003 6.0535002
-117.42567 -50.809002 6.1436667
-117.59867 -50.688999 6.1100001
-116.5115 -52.258499 6.3855
-116.598 -52.052498 6.3625002
-116.5 -52.16 6.3460002
-116.638 -51.927002 6.4049997
-117.55475 -50.623501 6.3930001
-117.491 -50.643002 6.3730001
-115.219 -54.227001 7.4650002
-114.59235 -55.088501 7.6479292
-114.67633 -54.949001 7.6376667
-114.954 -54.588669 7.605166
-115.07101 -54.382496 7.6286664
-115.27425 -54.077877 7.6351252
-115.19771 -54.195801 7.6441994
-115.40499 -53.888641 7.602571
-116.04734 -52.837498 7.6636662
-115.95937 -52.931622 7.6280003
-116.259 -52.543999 7.645
-116.176 -52.609333 7.6849165
-116.6935 -51.904503 7.7075
-115.17726 -54.155624 7.8590002
-116.05172 -52.825569 7.8969998
-115.938 -52.918835 7.8673329
-116.1264 -52.616737 7.8837333
-116.261 -52.445 7.9780002
-116.20825 -52.421001 7.8170004
-116.55251 -52.084 7.9310002
-116.777 -51.789001 7.9749999
-116.6925 -51.880253 7.8882504
-116.89468 -51.588669 7.8889999
-117.2705 -51.029999 7.8845
-117.35921 -50.897602 7.8860002
-117.58041 -50.5872 7.9250002
-117.80475 -50.314999 7.9692497
-117.6542 -50.435596 7.8736
-117.8926 -50.112404 7.8875999
-117.98724 -49.977749 7.881
-118.37199 -49.413002 7.9565001
-118.545 -49.0965 7.9575
-118.461 -49.249001 7.9650002
-118.752 -48.837002 7.994
-116.05367 -52.840668 8.0506668
-116.16 -52.618252 8.0895004
-117.3015 -51.043499 8.1324997
-117.511 -50.751999 8.1160002
-117.38994 -50.878071 8.1123571
-117.60037 -50.582245 8.1463757
-117.46851 -50.734001 8.1129999
-117.77634 -50.310333 8.1846666
-117.7132 -50.4034 8.1412001
-117.88828 -50.135727 8.1302776
-118.05062 -49.851372 8.1100006
-117.982 -49.975502 8.1275005
-118.31799 -49.525665 8.1210003
-118.375 -49.414165 8.1365004
-118.54625 -49.071503 8.1065006
-118.46991 -49.1987 8.1648006
-118.66789 -48.884102 8.0937004
-118.84874 -48.612648 8.1215496
-119.03925 -48.324497 8.1272497
-118.96 -48.403667 8.1236658
-117.3615 -50.927498 8.2795
-117.5754 -50.642601 8.3141994
-117.792 -50.284 8.3369999
-117.722 -50.397999 8.3214998
-117.86575 -50.16925 8.3320007
-118.037 -49.841671 8.350668
-117.98375 -49.9305 8.3322496
-118.3395 -49.535 8.3465004
-118.37109 -49.381302 8.3796005
-118.5535 -49.049248 8.4144993
-118.44867 -49.169163 8.3841667
-118.68307 -48.896427 8.3760004
-118.83656 -48.646545 8.3719501
-119.03751 -48.32375 8.3742504
-118.96567 -48.438999 8.3433332
-118.371 -49.362 8.5050001
-118.517 -49.136002 8.5089998
-118.451 -49.245499 8.5044994
-118.723 -48.826 8.5310001
-118.827 -48.611626 8.5610008
-118.947 -48.431999 8.5229998
-117.356 -50.784 10.443
-117.504 -50.561001 10.485
-117.4235 -50.668999 10.4685
-117.651 -50.327999 10.475
-117.3006 -50.855999 10.571
-117.216 -50.964249 10.577999
-117.4167 -50.639355 10.620999
-117.58744 -50.393448 10.651112
-117.79501 -50.030334 10.682334
-117.71059 -50.174599 10.648
-117.29987 -50.833 10.848125
-117.42273 -50.627163 10.865666
-117.57583 -50.388836 10.874667
-117.7515 -50.077 10.852
-117.69349 -50.180664 10.874
-117.473 -50.549 11.021
-117.64 -50.325001 11.013
-117.70267 -50.153 11.032666
-118.84679 -48.628426 11.116786
-118.83099 -48.628998 11.275499
-118.8184 -48.634998 11.671301
-117.776 -50.092999 13.243
-117.77499 -50.139999 13.386499
-117.75 -50.082001 13.42
-117.7225 -49.973 13.447001
-117.699 -50.254002 13.732
-117.69131 -50.095001 13.592402
-117.737 -49.979 13.674
