# .PCD v0.7 - Point Cloud Data file format
VERSION 0.7
FIELDS x y z
SIZE 4 4 4
TYPE F F F
COUNT 1 1 1
WIDTH 61
HEIGHT 1
VIEWPOINT -18.2321 96.2205 -1.35163 -0.354149 -0.00701479 0.0211809 0.934923
POINTS 61
DATA ascii
-41.866592 17.100258 -1.1460171
-41.786995 17.291552 -1.132286
-42.123089 16.370687 -0.85662526
-42.047672 16.601624 -0.85333329
-41.960667 16.745111 -0.95611107
-41.936359 16.85932 -0.84150988
-41.859951 17.130178 -0.87576056
-41.786346 17.315016 -0.86746985
-42.114853 16.392168 -0.61692101
-42.028896 16.645414 -0.59407145
-41.994999 16.622 -0.50800002
-41.93993 16.871626 -0.61680645
-41.851673 17.119757 -0.61621815
-41.780159 17.300455 -0.66894722
-42.107822 16.398497 -0.36725438
-42.032822 16.6357 -0.35118043
-41.943459 16.865067 -0.35191998
-41.857506 17.114227 -0.35397327
-41.778336 17.311939 -0.39962178
-42.15052 16.390499 -0.099835157
-42.046165 16.633131 -0.095370211
-41.998001 16.623501 -0.146
-41.952717 16.857517 -0.098143101
-41.869343 17.13937 -0.10279016
-41.824158 17.344351 -0.13848753
-42.206882 16.377745 0.14319231
-42.069218 16.629099 0.13088556
-41.958458 16.848053 0.13555001
-41.903553 17.134161 0.14300397
-41.836342 17.366388 0.089839287
-42.202423 16.366554 0.39754125
-42.072117 16.622663 0.36782321
-41.957355 16.873316 0.37245655
-41.901951 17.09968 0.37401471
-41.855427 17.342459 0.37402496
-42.130741 16.399252 0.6047098
-42.047688 16.627325 0.60593349
-41.983669 16.652668 0.65733331
-42.011238 16.788843 0.64819795
-41.95417 16.875597 0.60587418
-41.855453 17.122906 0.6418398
-41.770142 17.294857 0.62469536
-42.136936 16.372292 0.87950104
-42.063587 16.612619 0.86389446
-42.012253 16.80225 0.861
-41.937187 16.884121 0.87432975
-41.880657 17.131756 0.87060177
-42.122471 16.381006 1.1402199
-42.042336 16.628593 1.1253844
-41.988003 16.676666 1.1500001
-41.931931 16.863279 1.149403
-41.849415 17.130749 1.1369144
-42.184242 16.374464 1.3769913
-42.074734 16.625971 1.3633597
-42.013439 16.862459 1.3776
-41.978767 16.928268 1.3661444
-41.890869 17.141024 1.3627982
-42.08255 16.590384 1.6317452
-42.028957 16.829798 1.5925916
-41.980564 16.936289 1.626075
-41.898151 17.134214 1.6134286
