# .PCD v0.7 - Point Cloud Data file format
VERSION 0.7
FIELDS x y z
SIZE 4 4 4
TYPE F F F
COUNT 1 1 1
WIDTH 128
HEIGHT 1
VIEWPOINT -18.2321 96.2205 -1.35163 -0.354149 -0.00701479 0.0211809 0.934923
POINTS 128
DATA ascii
-38.237999 25.811001 12.998
-38.0755 26.375248 12.98775
-38.017502 26.542 12.9945
-37.971333 26.676224 12.982223
-37.908222 26.916281 12.990111
-37.801395 27.105499 12.972813
-37.759335 27.337334 12.975668
-37.700912 27.442625 12.968917
-37.625801 27.647289 12.958416
-37.568722 27.860834 12.969334
-39.312786 23.124426 13.200283
-39.260376 23.291626 13.231
-39.161289 23.384502 13.134027
-39.096607 23.634031 13.156579
-39.049019 23.89204 13.197354
-38.985126 23.882124 13.11425
-38.92754 24.141344 13.154851
-38.838264 24.379179 13.120451
-38.80806 24.528223 13.148389
-38.738693 24.671524 13.106793
-38.761471 24.839666 13.225266
-38.656212 24.859446 13.108391
-38.592628 25.086346 13.140584
-38.519295 25.327274 13.141575
-38.445274 25.398926 13.082112
-38.529999 25.5 13.165
-38.408367 25.621933 13.124589
-38.333027 25.850843 13.115889
-38.249668 25.856585 13.025167
-38.30085 26.077465 13.185658
-38.33617 26.279833 13.219167
-38.119183 26.368889 13.142917
-38.053368 26.576727 13.124089
-37.977501 26.5935 13.035666
-38.059624 26.7915 13.178969
-37.934021 26.868488 13.057817
-38.043503 27.078499 13.186
-37.895851 27.104691 13.122298
-37.798862 27.35927 13.095699
-37.712334 27.465334 13.028501
-37.701416 27.678652 13.126765
-37.600121 27.894714 13.064717
-37.591946 28.098055 13.102501
-37.524887 28.305445 13.155
-37.512001 28.586 13.138
-37.405693 28.588428 13.094954
-37.507 28.917 13.095
-37.296581 28.871195 13.129464
-37.397999 29.209 13.078
-37.187412 29.161657 13.093201
-37.095413 29.439508 13.109009
-37.042637 29.604101 13.1658
-39.375969 23.131512 13.372133
-39.344639 23.281387 13.367805
-39.245331 23.488998 13.253
-39.253223 23.585669 13.418777
-39.215557 23.57625 13.289889
-39.14706 23.880699 13.364285
-39.027428 24.192366 13.374661
-38.995998 24.187 13.347
-38.92828 24.470222 13.348889
-38.899437 24.528294 13.409084
-38.800648 24.794382 13.383548
-38.690758 25.121389 13.332671
-38.584583 25.414419 13.346024
-38.337723 26.058889 13.420667
-38.110008 26.364748 13.383081
-38.079075 26.79891 13.368329
-38.003998 27.068001 13.474
-37.947102 27.109118 13.401083
-37.840252 27.403273 13.389063
-37.760002 27.678833 13.3595
-37.710846 27.712561 13.439695
-37.635735 27.97393 13.383824
-37.608231 28.024105 13.366333
-37.524628 28.291042 13.333395
-37.492092 28.304483 13.422767
-37.403183 28.591698 13.359429
-37.298084 28.888044 13.377355
-37.193214 29.17923 13.358135
-37.098255 29.452154 13.370621
-37.046165 29.628147 13.408205
-36.955669 29.746443 13.451667
-39.373169 23.131384 13.608526
-39.350197 23.302332 13.58414
-38.045986 26.817657 13.614713
-37.995499 26.851625 13.62225
-38.00975 27.050499 13.676
-37.921627 27.130606 13.626613
-37.806232 27.42551 13.631162
-37.704941 27.702513 13.645305
-37.643093 27.90341 13.613944
-37.578465 28.107435 13.624024
-37.476883 28.311268 13.599884
-37.397583 28.596117 13.641545
-37.322601 28.864767 13.659754
-37.239998 28.943302 13.6491
-37.315002 29.112305 13.743167
-37.177204 29.177847 13.633306
-37.278999 29.409 13.736
-37.113567 29.426554 13.657885
-37.056068 29.646259 13.652316
-37.958687 26.663769 13.9164
-38.105648 26.836235 13.816736
-37.902393 26.869036 13.893716
-38.074081 27.067999 13.821334
-37.831463 27.125357 13.870695
-38.0345 27.349501 13.8195
-37.887016 27.353338 13.797366
-37.708893 27.36784 13.885429
-37.867531 27.614401 13.796201
-37.657192 27.623253 13.85626
-37.806999 27.926001 13.80275
-37.622864 27.881529 13.812898
-37.48175 27.93725 13.872499
-37.599876 28.122974 13.792002
-37.441528 28.155506 13.838341
-37.577698 28.362738 13.770764
-37.389099 28.373753 13.808119
-37.570999 28.551502 13.7745
-37.308159 28.60741 13.794058
-37.235085 28.687967 13.8237
-37.509499 28.807999 13.759501
-37.343124 28.766624 13.771376
-37.171967 28.871801 13.813367
-37.092731 29.113388 13.797154
-37.044167 29.346832 13.763499
-36.974388 29.374859 13.80663
