# .PCD v0.7 - Point Cloud Data file format
VERSION 0.7
FIELDS x y z
SIZE 4 4 4
TYPE F F F
COUNT 1 1 1
WIDTH 90
HEIGHT 1
VIEWPOINT -18.2321 96.2205 -1.35163 -0.354149 -0.00701479 0.0211809 0.934923
POINTS 90
DATA ascii
69.875435 99.412292 9.8669281
69.856499 99.440331 10.076417
69.759666 99.546341 10.238334
69.931503 99.454201 10.3435
70.118919 99.35321 10.382928
69.733002 99.552002 10.383
69.825401 99.548401 10.415
69.625999 99.922997 10.3765
70.921005 98.949005 10.6985
70.415001 99.196678 10.65
70.626999 99.112251 10.687375
69.689003 99.490997 10.547
69.909401 99.425003 10.5562
70.118752 99.364746 10.629084
70.376999 99.287003 10.717
69.640877 99.632126 10.690875
69.880501 99.572128 10.683876
69.335999 99.86692 10.678
69.567001 99.761002 10.696
68.746506 100.2265 10.651
68.899002 100.131 10.665125
69.055 100.02533 10.645333
68.364082 100.44175 10.641833
68.599129 100.31238 10.664375
67.900993 100.7072 10.640399
68.137535 100.58209 10.654467
67.804749 100.76425 10.63675
71.879204 98.429001 10.8716
72.089928 98.295219 10.890929
71.408699 98.668503 10.837
71.830002 98.531494 10.9205
72.136002 98.661003 10.932
70.893852 98.943581 10.882143
71.084755 98.848877 10.8845
71.344627 98.796753 10.943125
70.225334 99.223999 10.868667
70.451248 99.210495 10.86125
70.642525 99.097603 10.848071
70.791008 99.039833 10.8595
69.984169 99.465828 10.864499
70.114716 99.337784 10.893858
70.3815 99.294495 10.8905
69.594582 99.658081 10.898583
69.829826 99.553589 10.902751
69.190002 99.973999 10.869
69.338715 99.88414 10.882285
69.512329 99.839333 10.845666
68.740997 100.219 10.863
68.878426 100.17307 10.857642
69.10099 100.04333 10.879498
68.209999 100.497 10.832
68.413124 100.43112 10.825375
68.605011 100.35271 10.877277
68.780998 100.278 10.957
67.897003 100.717 10.813
68.10463 100.62675 10.8755
68.318336 100.55566 10.896333
67.873337 100.80566 10.929
68.031998 100.841 10.912
72.40612 97.949753 11.107625
72.571999 97.886993 11.0445
72.154877 98.2285 11.134874
72.340004 98.158836 11.118335
72.048248 98.293503 11.13675
71.390999 98.713341 11.129001
71.632439 98.602882 11.15425
71.814003 98.510002 11.132
70.951332 98.970337 11.102666
71.125572 98.882423 11.111856
71.323624 98.802124 11.108999
70.237 99.241661 11.126667
70.4515 99.177002 11.0445
70.616753 99.136002 11.1225
70.845161 99.065498 11.103168
69.953751 99.464005 11.116749
70.098877 99.356743 11.13075
70.443665 99.284668 11.150333
69.82283 99.556915 11.151834
69.245003 99.973999 11.216
69.366646 99.91436 11.1125
69.546333 99.784996 11.145333
68.895248 100.17612 11.09125
69.141586 100.05316 11.099916
68.807671 100.267 11.122001
68.145004 100.66812 11.105249
69.899498 99.726501 11.341499
70.08625 99.581001 11.332
69.341499 100.11501 11.30725
69.532997 100.021 11.285
68.866257 100.32725 11.278
