# .PCD v0.7 - Point Cloud Data file format
VERSION 0.7
FIELDS x y z
SIZE 4 4 4
TYPE F F F
COUNT 1 1 1
WIDTH 1585
HEIGHT 1
VIEWPOINT -18.2321 96.2205 -1.35163 -0.354149 -0.00701479 0.0211809 0.934923
POINTS 1585
DATA ascii
31.03529 19.895618 -1.2860374
31.280001 19.752499 -1.3125
31.094067 19.724667 -1.1550786
30.969675 19.97254 -1.1460065
31.274263 19.754889 -1.1457397
30.664518 20.179209 -1.1305537
30.855024 20.052774 -1.116696
30.381052 20.371927 -1.1155703
30.545998 20.260689 -1.0973437
29.898249 20.697889 -1.116218
29.473984 20.982498 -1.1447879
29.62779 20.881239 -1.1286845
29.773186 20.783627 -1.106625
29.169958 21.188278 -1.1190778
29.370615 21.052458 -1.1351405
28.855028 21.40181 -1.1395618
29.028297 21.28664 -1.0867813
28.405207 21.705301 -1.1048646
28.588646 21.580441 -1.139145
27.9879 21.9879 -1.1111
28.125851 21.893791 -1.1199738
28.284748 21.787376 -1.1094375
27.663654 22.205734 -1.1023505
27.838799 22.088095 -1.1149354
27.366272 22.406271 -1.1304456
27.537666 22.287073 -1.1440173
26.938225 22.694651 -1.1439391
27.114485 22.576571 -1.1408744
26.497375 22.996498 -1.109875
26.644972 22.895332 -1.1167698
26.821825 22.77323 -1.1435486
26.206211 23.190903 -1.1267341
26.369452 23.081299 -1.1232964
26.500999 23 -1.0304999
25.870943 23.416931 -1.1248742
26.050282 23.296997 -1.1046679
25.4533 23.697006 -1.1331632
25.642179 23.571207 -1.1193486
25.137445 23.909651 -1.1312839
25.350477 23.76969 -1.0969548
31.063416 19.734238 -0.87282592
31.354824 19.635082 -0.85460293
30.972258 19.984072 -0.85786313
31.065538 19.895941 -0.87389231
31.271074 19.7749 -0.85814995
30.668831 20.188932 -0.87982267
30.870733 20.052244 -0.85056239
30.36043 20.395292 -0.88135654
30.541613 20.277348 -0.84136832
29.905216 20.705502 -0.85486031
30.104317 20.569454 -0.85969341
29.481842 20.989351 -0.8560977
29.629032 20.890205 -0.86840045
29.782125 20.787876 -0.85643053
29.171907 21.198572 -0.85159892
29.35491 21.075676 -0.86306876
28.847198 21.417318 -0.86981136
29.03331 21.290985 -0.89569372
28.425491 21.70212 -0.86819112
28.612906 21.575878 -0.87480325
27.997292 21.988583 -0.91125
28.141525 21.893522 -0.85404378
28.316319 21.775311 -0.85654175
27.688543 22.200397 -0.87563187
27.85791 22.086506 -0.85392076
27.358438 22.421499 -0.87220109
27.536295 22.302057 -0.86851108
26.951477 22.695635 -0.86929005
27.11763 22.586329 -0.86985826
26.499001 22.997999 -0.89600003
26.653339 22.897739 -0.8794331
26.819599 22.784271 -0.88562506
26.188049 23.212986 -0.89710295
26.353069 23.101053 -0.87493151
26.504667 23.002668 -0.84300005
25.862942 23.431929 -0.86183584
26.050049 23.304882 -0.89587563
25.465891 23.700006 -0.87423736
25.635494 23.584068 -0.88210893
25.142483 23.917856 -0.88847435
25.328171 23.793777 -0.86896461
31.082104 19.729471 -0.64974999
31.356638 19.637081 -0.60240626
30.985458 19.916374 -0.58516669
31.055885 19.846926 -0.65645248
31.282562 19.784874 -0.59981251
30.691517 20.183508 -0.64116114
30.857403 20.071747 -0.62140894
30.351835 20.411848 -0.63993269
30.525822 20.295343 -0.62736285
29.918921 20.705273 -0.61068755
30.122299 20.568037 -0.62801754
29.484335 20.998669 -0.66400003
29.650213 20.885317 -0.62679106
29.815018 20.775026 -0.59778947
29.183378 21.199339 -0.63445908
29.354933 21.08721 -0.61296844
28.871008 21.413576 -0.61935055
29.039719 21.297201 -0.64377779
28.450684 21.698124 -0.60087299
28.635185 21.572762 -0.62590021
28.148853 21.901236 -0.60256535
28.346764 21.767464 -0.59740847
27.675903 22.218409 -0.63688952
27.848961 22.10252 -0.62156427
27.381226 22.418018 -0.63631058
27.561304 22.29627 -0.62991136
26.953394 22.704895 -0.63228452
27.146065 22.577648 -0.61733794
26.653837 22.906775 -0.63994366
26.830503 22.787239 -0.64993751
26.182657 23.224686 -0.64467496
26.365845 23.10162 -0.63812298
26.508169 23.005333 -0.65108329
25.881882 23.428432 -0.62738562
26.057676 23.307863 -0.64808482
25.455408 23.717228 -0.63071114
25.640352 23.592089 -0.64034981
25.14901 23.925032 -0.62909955
25.311155 23.814518 -0.64835733
31.08947 19.739899 -0.43667647
31.353434 19.643936 -0.39564466
30.99575 19.914917 -0.40566668
31.037134 19.8458 -0.35561806
31.272583 19.802465 -0.33510002
30.694529 20.191814 -0.37648213
30.849047 20.087175 -0.3897813
30.360035 20.416319 -0.36380818
30.54228 20.296141 -0.35264957
29.943243 20.697968 -0.39595568
30.130713 20.572033 -0.37676665
29.623217 20.916229 -0.37188524
29.818472 20.783899 -0.38080001
29.175568 21.214603 -0.37531644
29.346626 21.101004 -0.3629953
28.846754 21.439728 -0.37926227
29.057459 21.298082 -0.36526778
28.451641 21.707968 -0.37362498
28.642328 21.578732 -0.37376547
28.115032 21.930271 -0.37552026
28.299391 21.812132 -0.34744048
27.688972 22.220001 -0.40770173
27.858267 22.106182 -0.37300783
28.014999 22.002125 -0.30912501
27.362659 22.440809 -0.37233499
27.572306 22.300154 -0.35426494
26.955738 22.711178 -0.3742767
27.130985 22.595907 -0.37142938
26.648233 22.923904 -0.37656966
26.825266 22.802021 -0.3410143
26.216501 23.212109 -0.40660715
26.362915 23.115578 -0.36466858
26.51989 23.012484 -0.35661665
25.89892 23.428223 -0.37638861
26.097918 23.294807 -0.35549563
25.451593 23.733011 -0.35113573
25.648632 23.598839 -0.37137938
25.161396 23.927771 -0.38230389
25.331619 23.813948 -0.3504771
31.104 19.746 -0.22400001
31.075777 19.8489 -0.10152071
31.309269 19.782473 -0.10736122
30.648165 20.233707 -0.14752084
30.8633 20.08795 -0.12790141
30.354698 20.428041 -0.10357963
30.552189 20.300819 -0.10168959
30.139969 20.577353 -0.10495701
29.183514 21.217035 -0.1318125
29.369303 21.0949 -0.12877864
27.717459 22.216125 -0.13783331
27.863646 22.123121 -0.10969489
28.01775 22.004124 -0.11012501
27.405714 22.423006 -0.14310092
26.646826 22.944977 -0.11242738
26.816668 22.816748 -0.10749641
26.221849 23.218208 -0.19824167
26.365562 23.140219 -0.10831014
26.561892 23.023788 -0.07204286
25.924681 23.429605 -0.13413735
26.113552 23.318155 -0.091536455
25.453686 23.739775 -0.15145454
25.63513 23.640209 -0.12205955
25.801628 23.550737 -0.052409776
25.170229 23.954025 -0.13416424
25.367357 23.828798 -0.10823071
31.073841 19.877987 0.14492504
31.332037 19.792744 0.10991635
30.709602 20.231783 0.10360906
30.862053 20.141502 0.14090008
31.050781 20.035229 0.1992991
30.383324 20.418041 0.12474751
30.596298 20.316753 0.11026071
26.70335 22.962437 0.12614951
26.82225 22.842436 0.11983056
26.401453 23.165127 0.12248562
26.551989 23.068104 0.12428071
25.952719 23.46871 0.14921777
26.114971 23.360113 0.11650455
26.252264 23.266424 0.15478949
25.662601 23.666225 0.1488125
25.814947 23.561308 0.10191548
25.207615 23.968712 0.12830143
25.382002 23.862108 0.14347035
25.54538 23.753853 0.10271946
31.399401 19.626492 0.38239393
31.06349 19.85482 0.36223659
31.361534 19.814602 0.33829039
30.903727 20.145874 0.36590537
31.090298 20.019007 0.37300149
30.639572 20.322412 0.34911114
30.754055 20.250336 0.44444445
26.949247 22.7495 0.35431251
26.716574 22.962673 0.35284072
26.851263 22.83754 0.36409557
26.37908 23.19132 0.38035321
26.574053 23.058638 0.36413684
25.959347 23.475071 0.40065867
26.124401 23.363825 0.36293083
26.261221 23.26976 0.34850344
25.675156 23.669874 0.39519393
25.848816 23.549238 0.35185358
25.198 23.993198 0.34999999
25.3808 23.870741 0.37508702
25.548752 23.755568 0.35368335
31.934555 18.409138 0.68834716
31.707058 18.86153 0.70291245
31.69449 19.101942 0.6437
31.408319 19.393229 0.59847218
31.622345 19.311089 0.63994634
31.863878 19.367054 0.6233741
31.396053 19.625711 0.64680314
31.085381 19.854538 0.60527098
31.364756 19.813955 0.64558399
30.894728 20.155342 0.61484998
31.077518 20.031851 0.63002509
30.434456 20.420101 0.63786751
30.639933 20.328438 0.63574737
30.751471 20.252213 0.54357898
26.717186 22.973812 0.60347497
26.870581 22.830645 0.60350972
26.386992 23.196953 0.63306737
26.582302 23.065126 0.62042522
25.971779 23.479614 0.65161109
26.132936 23.37007 0.63886064
26.265444 23.281149 0.64378029
25.668238 23.684057 0.63037378
25.864212 23.551563 0.63172901
25.380377 23.879827 0.60614419
25.548223 23.764748 0.64588505
31.414255 19.408472 0.84906501
31.591518 19.313934 0.90201676
31.804169 19.32398 0.7536611
31.394533 19.632868 0.90242004
31.1152 19.896545 0.8683489
31.344461 19.845774 0.88033158
30.892677 20.166698 0.85376716
31.090143 20.033684 0.86942071
30.625681 20.344543 0.87387288
27.015499 22.731251 0.88975
26.70694 22.987391 0.84455556
26.859812 22.847004 0.85320747
27.082624 22.813126 0.78799999
26.404646 23.193459 0.88184053
26.572571 23.0811 0.86230457
25.977646 23.483063 0.88923889
26.12278 23.386309 0.87805516
26.280609 23.280724 0.89027774
25.68185 23.682386 0.86591125
25.875961 23.552748 0.89782029
25.356676 23.907576 0.85923576
25.529831 23.792624 0.90660107
31.942524 18.43478 1.1371987
31.685854 18.872585 1.1161354
31.427549 19.400589 1.1393199
31.622681 19.325615 1.1146818
31.391565 19.622934 1.1261667
31.118277 19.941063 1.1326375
31.352312 19.848259 1.1308448
30.887123 20.183861 1.1489016
31.060656 20.066244 1.1335036
30.410782 20.451235 1.1092161
30.593966 20.38205 1.1368934
30.757523 20.27323 1.1465176
26.749186 22.968437 1.0495
26.857817 22.868013 1.1452136
27.373489 22.89716 1.1628458
26.411337 23.201 1.1232594
26.600277 23.074953 1.1457382
25.983168 23.489889 1.1361945
26.141846 23.384144 1.1397243
26.285057 23.285522 1.1056983
25.656748 23.711987 1.1293294
25.82719 23.586445 1.1088674
25.363571 23.91 1.1256891
25.546339 23.795261 1.1032356
31.693499 18.902563 1.436625
31.418491 19.416706 1.3817524
31.58374 19.341686 1.3559952
31.38879 19.642412 1.3530524
31.089525 19.890728 1.3594741
31.351547 19.861902 1.3737561
30.889875 20.188576 1.3955483
31.07415 20.064604 1.3630427
30.419712 20.464331 1.3720734
30.62739 20.366859 1.3771312
30.762875 20.274666 1.392625
26.86137 22.876791 1.3796325
27.014389 22.788055 1.4297777
27.413584 22.875418 1.3585415
26.432684 23.196165 1.3708367
26.6304 23.065247 1.3817904
25.985268 23.492065 1.3973
26.137035 23.391579 1.3858275
26.314356 23.274855 1.3546945
25.671814 23.704782 1.3671291
25.85124 23.584978 1.3620986
25.343466 23.932962 1.374514
25.544119 23.795523 1.3563036
31.654793 18.849541 1.5820833
31.422699 19.419834 1.6477716
31.622221 19.339653 1.6357361
31.384436 19.633358 1.6336353
31.052959 19.899105 1.5986249
31.344076 19.87834 1.6270251
30.894787 20.196671 1.6126453
31.078812 20.072474 1.6340922
30.621382 20.383455 1.6394383
30.769403 20.281097 1.6026666
26.876059 22.873304 1.6272571
27.055 22.823 1.5599999
27.37261 22.903143 1.5868362
26.450052 23.199585 1.6450162
26.652246 23.061573 1.6195595
26.147186 23.402426 1.6200366
26.35457 23.26384 1.6512719
25.693924 23.708551 1.6137538
25.865717 23.592613 1.6390864
26.0005 23.506001 1.69225
25.36277 23.935755 1.6270287
25.552521 23.805468 1.6470418
31.693415 18.891338 1.8676933
31.659573 19.097126 1.8673952
31.424856 19.424286 1.89675
31.588648 19.342758 1.8638103
31.385118 19.655945 1.8830731
31.085136 19.905832 1.8738611
31.367336 19.861616 1.8642995
30.903677 20.202694 1.8531066
31.070522 20.088764 1.8813559
30.43992 20.471031 1.8474808
30.647532 20.375942 1.8844005
30.776293 20.288328 1.8488156
26.863543 22.894127 1.866967
27.071556 22.86911 1.9211111
27.375988 22.892496 1.9071506
26.450727 23.205086 1.8984017
26.627979 23.088388 1.8698959
27.288 23.02 1.872
26.121107 23.428551 1.863948
26.296677 23.310678 1.8847737
25.67996 23.727816 1.8506386
25.856186 23.607082 1.8681355
26.004585 23.50975 1.9068333
25.388283 23.927702 1.8615726
25.578283 23.800026 1.9054556
31.647623 19.113251 2.105
31.418484 19.437487 2.1210916
31.380356 19.634371 2.1603141
31.077295 19.910248 2.1255851
31.36026 19.870333 2.1348348
30.905714 20.207951 2.1167953
31.078516 20.089659 2.1367173
30.646515 20.38427 2.1284764
30.790949 20.288109 2.1445556
26.856255 22.907776 2.1051819
27.123751 22.9135 2.1078334
27.389662 22.901434 2.0764589
26.463596 23.207483 2.1033916
26.640913 23.088875 2.1042719
27.239 23.011 2.194
27.368921 23.02458 2.1506004
26.156364 23.41641 2.15271
26.328539 23.3013 2.1335166
25.717125 23.71246 2.1052084
25.866222 23.611469 2.1256447
26.019098 23.509933 2.1485417
25.402208 23.928993 2.1271234
25.607086 23.788675 2.1151943
25.306999 24 2.1775
31.608398 18.899309 2.3872962
31.429125 19.400963 2.3804095
31.574917 19.344042 2.3347464
31.378609 19.646765 2.3977916
31.09078 19.911612 2.3867466
31.348927 19.90204 2.372576
30.943401 20.193798 2.3745821
31.077452 20.073147 2.3720188
30.642355 20.39835 2.3712339
30.838547 20.263508 2.3563542
26.862968 22.908152 2.355546
27.406351 22.93573 2.3696375
27.765125 22.754562 2.3959374
26.466745 23.215586 2.3330545
26.64464 23.096786 2.3534462
27.337006 23.025862 2.3809848
26.155708 23.427765 2.3955088
26.347088 23.298439 2.3909848
25.722944 23.717445 2.3513889
25.846493 23.635162 2.3795962
26.024979 23.515388 2.3964722
25.422848 23.921078 2.3739877
25.594732 23.80687 2.383781
25.286655 24.019569 2.3734581
31.4128 19.460949 2.5989866
31.377035 19.659159 2.6239421
31.045862 19.94371 2.652359
31.353426 19.90509 2.6379943
30.952387 20.19854 2.6475368
31.078655 20.112305 2.6304049
30.643944 20.409105 2.6408525
30.824432 20.287722 2.6725042
26.865871 22.915771 2.5956478
27.426609 22.948586 2.6256034
27.776043 22.770208 2.6010418
26.448046 23.243546 2.6462226
26.630585 23.118881 2.6254432
27.36727 23.03594 2.6290276
26.138992 23.452452 2.6596971
26.322128 23.32642 2.6308656
25.735901 23.723801 2.6481628
25.85848 23.639709 2.6262426
26.032202 23.524744 2.6489441
25.433809 23.925089 2.6368275
25.610683 23.806263 2.6202023
25.290386 24.028469 2.6239815
31.404425 19.472418 2.8504226
31.371117 19.631218 2.8618987
31.101467 19.962265 2.8959215
31.353594 19.909163 2.8853028
30.957207 20.204102 2.895925
31.101643 20.07456 2.8885279
31.257999 20 2.865
30.627174 20.429724 2.9024546
30.810726 20.304461 2.8779228
26.450102 23.249598 2.8489501
26.612352 23.14068 2.8761489
26.152475 23.451689 2.8944042
26.345144 23.321413 2.8859701
25.74062 23.725677 2.8948464
25.888084 23.628193 2.8597889
26.03986 23.527969 2.9012151
25.401739 23.965071 2.8692977
25.603786 23.820301 2.8622358
25.302027 24.027452 2.8522851
31.369362 19.642111 3.0984166
31.088636 19.966333 3.1348391
31.353283 19.917503 3.149348
30.967693 20.209711 3.1289091
31.104364 20.086 3.1194859
30.650787 20.424213 3.1262734
30.844168 20.294916 3.1523879
26.87088 22.909218 3.1426184
26.626875 23.139524 3.1233196
26.75111 23.062389 3.248111
26.147139 23.462606 3.1193776
26.366249 23.315027 3.1376684
25.745071 23.735544 3.1477015
25.895826 23.63295 3.1191239
26.077789 23.513769 3.1249204
25.419567 23.965057 3.1009657
25.613199 23.826746 3.1346648
25.307137 24.035736 3.123934
31.054583 19.972908 3.3448749
31.354057 19.926151 3.3725162
30.963022 20.218872 3.3594975
31.087015 20.080809 3.3705535
31.255522 20.018267 3.3543177
30.452375 20.477123 3.2713749
30.654083 20.429779 3.3681195
30.826443 20.316378 3.405684
27.474998 22.492001 3.4305
26.880293 22.92392 3.3626013
26.615294 23.158195 3.3834758
26.802416 23.034418 3.364361
26.191673 23.441324 3.3557711
26.371857 23.322449 3.377111
25.747705 23.74107 3.397233
25.891659 23.642822 3.3744512
26.069925 23.524612 3.3740468
25.41646 23.962891 3.3525381
25.595303 23.842764 3.3864489
25.295069 24.048147 3.3510904
31.047827 19.978174 3.6471112
31.346565 19.927559 3.639873
30.949375 20.237558 3.6020658
31.049479 20.11212 3.638093
31.266483 20.023746 3.6485944
30.446899 20.460201 3.7100501
30.622332 20.452765 3.6392632
30.81123 20.331999 3.6195436
30.177214 20.658432 3.6788833
30.353018 20.577267 3.6219769
30.532837 20.517677 3.596879
29.662399 20.9666 3.6861999
29.229332 21.208332 3.7353334
29.397354 21.167765 3.6480756
29.610056 21.070568 3.6002133
28.896149 21.443951 3.6885464
29.130219 21.364222 3.6330121
29.307751 21.289299 3.5949268
28.448917 21.732986 3.700861
28.664101 21.640055 3.6593971
28.863134 21.588165 3.5814977
28.143501 21.930161 3.70205
28.34786 21.87586 3.6332815
28.549841 21.787352 3.574867
27.733376 22.227127 3.6860416
27.885223 22.153055 3.6551256
28.100702 22.071947 3.5998816
27.409212 22.439705 3.676327
27.625175 22.346155 3.6303532
27.822037 22.289396 3.5594358
26.943571 22.731071 3.675667
27.137697 22.647896 3.6526656
27.338156 22.570976 3.6001353
27.515999 22.510666 3.536
26.659479 22.929239 3.6476965
26.848352 22.878464 3.6318314
27.04884 22.803213 3.547225
26.616289 23.139898 3.6309142
26.801001 23.034 3.516
26.199497 23.446482 3.6064713
26.362551 23.337219 3.6117907
25.749859 23.745335 3.5477614
25.893393 23.653608 3.6398499
26.077156 23.527916 3.6059334
25.419079 23.970987 3.6220088
25.592293 23.856432 3.6404793
25.306765 24.052462 3.6469657
30.949936 20.242311 3.7504375
31.076447 20.119631 3.8946981
31.287933 20.0142 3.8088558
30.376896 20.428082 3.8074658
30.622667 20.420795 3.8633428
30.859665 20.309795 3.8719101
29.950489 20.70513 3.7871461
30.151405 20.627089 3.8296776
30.360542 20.608486 3.9136736
30.539459 20.521126 3.9177499
29.655264 20.904213 3.7849319
29.909555 20.892731 3.8795145
30.112373 20.811127 3.9173377
29.193001 21.197001 3.793
29.364283 21.152481 3.7990761
29.611034 21.131777 3.8992188
29.793755 21.026104 3.9274909
28.88327 21.441196 3.7693524
29.141924 21.389807 3.8678975
29.359461 21.307796 3.9172273
28.485334 21.686001 3.7616668
28.719812 21.679895 3.8512809
28.914427 21.620794 3.9021485
29.04323 21.534149 3.9049764
28.207001 21.902 3.773
28.411978 21.936951 3.8548379
28.590811 21.826042 3.8865695
27.960249 22.186125 3.7787499
28.115366 22.126488 3.8638558
28.288879 22.044994 3.9020889
27.693253 22.444395 3.8590307
27.86112 22.321699 3.864367
27.380209 22.657736 3.8636339
27.572763 22.529575 3.8736999
26.912998 22.938274 3.8524587
27.116602 22.833605 3.8693898
26.635422 23.163231 3.8845813
26.78573 23.043213 3.8558385
26.202183 23.453911 3.8339629
26.37594 23.337883 3.8704979
25.894066 23.663822 3.8816638
26.087883 23.532839 3.8531854
25.459433 23.96669 3.8532503
25.635958 23.841059 3.888504
25.75289 23.758249 3.8570988
25.346611 24.039549 3.8994656
30.645918 20.460512 4.1183681
30.857285 20.318783 4.1259265
30.239391 20.731964 4.1055713
30.368923 20.616524 4.1206474
30.54809 20.526375 4.0981216
29.910982 20.941885 4.1188736
30.11591 20.816755 4.1469321
29.623901 21.146715 4.1245079
29.810574 21.009214 4.0885
29.170359 21.427013 4.1592917
29.353006 21.320871 4.1470976
28.880785 21.65209 4.1238942
29.079468 21.519348 4.1352139
28.427633 21.954472 4.1557889
28.572739 21.82876 4.126441
28.115091 22.149553 4.129693
28.285587 22.054209 4.1280479
27.695318 22.457495 4.1276121
27.879494 22.327106 4.1356511
27.384911 22.631315 4.1299424
27.581753 22.516806 4.1183009
26.893436 22.957764 4.1322107
27.126026 22.841587 4.136045
26.628263 23.176476 4.1351075
26.793629 23.044554 4.1307297
26.210476 23.457521 4.1037426
26.416201 23.317545 4.1075859
25.893009 23.673952 4.1353397
26.059397 23.564196 4.1513619
25.463173 23.97258 4.1499672
25.606241 23.869823 4.1312723
25.754158 23.76778 4.1061873
25.168642 24.167141 4.1334829
25.356853 24.0411 4.1366205
30.677917 20.447384 4.3438616
30.872837 20.316404 4.3711805
30.241623 20.739899 4.3477597
30.356493 20.629917 4.3631759
30.570993 20.519796 4.3576579
29.87175 20.957413 4.3371449
30.081699 20.850058 4.3837361
29.643484 21.135906 4.3573289
29.791546 21.040009 4.4485855
29.182022 21.433397 4.4084344
29.378714 21.319149 4.3907042
28.701508 21.745148 4.3019409
28.87635 21.662794 4.3593259
29.073303 21.533932 4.3710127
28.424421 21.970577 4.3986874
28.599352 21.838274 4.3846149
28.107105 22.165478 4.3722887
28.311218 22.046703 4.3663526
27.713791 22.452869 4.3664422
27.891052 22.326794 4.3708534
27.393717 22.65398 4.3518858
27.592813 22.531002 4.3717451
26.911814 22.957514 4.3758993
27.106615 22.861223 4.3884859
27.251398 22.768103 4.4439001
26.644955 23.179516 4.3769751
26.809025 23.040459 4.3699226
26.198824 23.475677 4.3263278
26.380415 23.357624 4.3735251
25.883757 23.692392 4.3753624
26.074482 23.56336 4.3781285
25.463223 23.975201 4.400404
25.632904 23.862936 4.3736053
25.764137 23.774237 4.3550773
25.179426 24.175585 4.3751373
25.346121 24.055866 4.3805361
31.087891 20.13714 4.6440792
31.302109 20.039145 4.6483502
30.697166 20.443712 4.5988889
30.865099 20.332338 4.6118503
30.2211 20.743755 4.6679201
30.379068 20.624231 4.6261301
30.579277 20.524611 4.651607
29.908361 20.95623 4.6376176
30.099695 20.842031 4.6253824
29.439999 21.220556 4.7343335
29.633898 21.137798 4.6436982
29.797918 21.053169 4.6003084
29.168087 21.423086 4.6514649
29.369898 21.321898 4.6225672
28.886333 21.639458 4.6344552
29.07131 21.529888 4.6223979
28.618835 21.829607 4.6099896
28.119381 22.127831 4.6431785
28.340784 22.033121 4.6013408
26.875589 22.933359 4.6694212
26.657032 23.16136 4.6313443
26.809496 23.028093 4.5758882
26.194874 23.488625 4.5996246
26.378124 23.366938 4.6177421
26.552368 23.250788 4.7483153
25.906292 23.687479 4.6290526
26.068335 23.57637 4.6196933
25.473097 23.982676 4.6492858
25.616829 23.88131 4.6132417
25.773748 23.774742 4.6027346
25.180702 24.184616 4.6338491
25.353056 24.064156 4.6472111
31.339325 19.855986 4.8701272
31.101603 20.138147 4.879303
31.298981 20.048916 4.9046016
30.455502 20.4835 4.875
30.680683 20.451006 4.873024
30.896341 20.319241 4.853601
30.184679 20.679634 4.822135
30.334682 20.616222 4.8771524
30.591129 20.526972 4.8976793
29.412754 21.195276 4.81253
28.9795 21.488167 4.7850003
29.14743 21.416111 4.8624711
29.327681 21.345171 4.8707614
26.681847 23.160835 4.8563232
26.2304 23.476624 4.8562503
26.391691 23.366312 4.8629861
26.536516 23.271875 4.9215126
25.895321 23.706114 4.8794484
26.101942 23.564358 4.8763337
25.483 23.992332 4.8983331
25.648205 23.874205 4.8793468
25.774576 23.785156 4.8556838
25.184265 24.17795 4.8966761
25.351515 24.075008 4.8797703
31.247999 19.725 5.1389999
31.371302 19.594173 5.145225
31.145 19.997 5.1110001
31.371359 19.861513 5.0968223
30.995625 20.088249 5.1392498
31.07839 20.128775 5.135323
31.301535 20.05439 5.0954909
30.701025 20.444004 5.0838652
30.870846 20.3333 5.102881
30.582312 20.542089 5.1285305
26.682901 23.178976 5.1375232
26.374105 23.387188 5.1319675
26.523142 23.287149 5.1362038
25.913984 23.701492 5.1221552
26.107605 23.569706 5.1194372
25.481251 23.994751 5.1395001
25.625511 23.898754 5.1203566
25.781883 23.789051 5.0998163
25.184668 24.197432 5.116848
25.367756 24.07501 5.1468744
31.380716 19.595423 5.3990922
31.367958 19.861776 5.3493805
30.99625 20.115875 5.4041252
31.112282 20.147068 5.3874907
31.30913 20.06259 5.353826
30.699402 20.474012 5.3742366
30.889719 20.346811 5.3600278
30.571981 20.559069 5.383925
26.679434 23.192188 5.3810153
26.361267 23.408957 5.3777385
26.538876 23.28664 5.3698874
25.920286 23.706228 5.3517165
26.129768 23.564543 5.3630953
25.4755 23.998501 5.2525001
25.651112 23.888826 5.3620396
25.815725 23.776508 5.3795233
25.165979 24.225861 5.4206557
25.348064 24.097466 5.38344
31.389452 19.600029 5.6436024
31.364222 19.860987 5.6195903
30.992668 20.11425 5.5947084
31.107813 20.120539 5.6495337
31.313454 20.067703 5.5983281
30.698601 20.482727 5.623692
30.891235 20.355383 5.6410937
31.040321 20.25444 5.6478524
30.577682 20.565165 5.6341
26.672403 23.205305 5.6358342
26.358921 23.418156 5.6315374
26.543503 23.293192 5.6493421
25.943909 23.699598 5.6035781
26.137714 23.568193 5.6273122
25.644053 23.904545 5.625751
25.822546 23.783951 5.6435876
25.174957 24.229034 5.6445994
25.34864 24.109694 5.6382446
25.5135 24.0005 5.6555004
31.395092 19.607779 5.9131403
31.362278 19.860683 5.8621173
30.993933 20.127672 5.8516369
31.138559 20.120924 5.8608274
31.320049 20.078415 5.868886
30.725821 20.471739 5.8540664
30.875967 20.374886 5.8711567
31.046185 20.261845 5.8997374
30.569183 20.579666 5.8793144
26.69256 23.194284 5.8288627
26.359354 23.428263 5.8969173
26.548208 23.299429 5.8995891
25.955833 23.703424 5.8547196
26.122818 23.590893 5.8764896
25.66304 23.905973 5.8691711
25.835264 23.78957 5.8952808
25.191935 24.217335 5.9071703
25.38208 24.105627 5.8961544
25.513426 24.015028 5.8627419
31.394314 19.619463 6.1345062
31.357855 19.859135 6.1216331
30.989706 20.136396 6.1472702
31.117222 20.110352 6.1410308
31.330008 20.080359 6.1437316
30.748083 20.467098 6.1002722
30.872746 20.386606 6.1353269
31.020075 20.288609 6.1272902
30.594675 20.570065 6.1198668
26.666189 23.229576 6.1562123
26.351992 23.44174 6.12147
26.557201 23.301926 6.1274738
25.957783 23.711863 6.1335611
26.137781 23.58946 6.099031
25.651806 23.921629 6.1391873
25.830902 23.801111 6.1587305
25.220123 24.217312 6.1044998
25.363283 24.121855 6.12676
25.518738 24.01516 6.1099443
25.110252 24.296026 6.141809
31.40889 19.613434 6.3793879
31.356388 19.85873 6.3616819
30.990801 20.141499 6.3981247
31.113281 20.13273 6.3698359
31.333939 20.08411 6.4017973
30.856054 20.407969 6.3683381
31.030575 20.283953 6.3717246
30.60734 20.575857 6.373559
26.691238 23.220388 6.3753595
26.397266 23.422073 6.3537269
26.560169 23.3111 6.3724999
25.957842 23.721827 6.3564739
26.145891 23.594156 6.3511581
25.615864 23.959438 6.4031625
25.818132 23.820799 6.3981414
25.234106 24.227083 6.3528404
25.381765 24.117115 6.3724356
25.525568 24.018126 6.347528
25.093328 24.314468 6.3882575
31.406267 19.620867 6.6175385
31.352962 19.858519 6.6499224
30.992605 20.164198 6.6530242
31.110382 20.155689 6.6244636
31.318815 20.102497 6.6187973
30.856792 20.419445 6.6400146
31.042372 20.293447 6.5975413
30.636883 20.566132 6.6303663
26.7145 23.214937 6.6084194
26.392353 23.434416 6.6411595
26.596775 23.295559 6.6372113
25.947466 23.740349 6.6456666
26.132559 23.613352 6.6436915
25.667681 23.932383 6.6209812
25.838165 23.814066 6.6507678
25.237165 24.227224 6.6521111
25.376251 24.133272 6.5994358
25.537298 24.027008 6.6515865
25.08531 24.335344 6.6497698
31.394003 19.640631 6.8455434
31.550377 19.590113 6.8480968
31.350115 19.856634 6.8989215
30.994848 20.16967 6.9030266
31.101385 20.145859 6.8627791
31.31818 20.110662 6.8507833
30.879162 20.412418 6.8910704
31.049887 20.297472 6.8515606
30.619949 20.58807 6.8734102
26.723534 23.217417 6.8505249
26.424158 23.425207 6.8946037
26.599558 23.30229 6.874649
25.9526 23.746 6.8506007
26.130075 23.626274 6.8768845
26.310667 23.502998 6.8630834
25.65093 23.952114 6.8710351
25.846619 23.820862 6.8917937
25.237083 24.220251 6.8531675
25.38069 24.143064 6.8496614
25.542145 24.03545 6.8957305
25.097284 24.332056 6.8894
31.347185 19.844549 7.1193247
30.994957 20.177624 7.0949168
31.128933 20.165482 7.1450605
31.322062 20.118162 7.1496201
30.872389 20.428844 7.1386662
31.048338 20.296156 7.1502533
30.629955 20.592249 7.1292953
26.734709 23.219292 7.0949998
26.436329 23.424419 7.1231341
26.597158 23.314985 7.1208391
26.118912 23.642181 7.1306
26.28245 23.529289 7.0973206
25.680971 23.940096 7.14642
25.864904 23.815866 7.1473002
25.247444 24.239666 7.1464448
25.374859 24.150768 7.1361189
25.544044 24.035023 7.0993662
25.092781 24.345514 7.1452427
31.34774 19.869894 7.363174
30.995916 20.187471 7.353333
31.099829 20.186192 7.4082069
31.330002 20.111618 7.3804331
30.883263 20.429331 7.3822565
31.039124 20.302895 7.3831782
30.649326 20.588797 7.3705711
26.7363 23.230583 7.3559723
26.421448 23.446333 7.3461442
26.621237 23.310455 7.362464
26.087851 23.674376 7.3476706
26.293278 23.536081 7.3745003
25.696415 23.944023 7.4005728
25.873384 23.824314 7.3948379
25.395109 24.148991 7.3843493
25.573404 24.026676 7.3744149
25.122337 24.33684 7.404078
31.345404 19.869122 7.6360807
30.998419 20.202868 7.6786003
31.110825 20.193336 7.6277795
31.330601 20.112604 7.6211929
30.903419 20.426359 7.6226096
31.046844 20.328903 7.5962887
30.626972 20.615433 7.6310091
30.753067 20.537401 7.7462687
28.068811 22.297264 7.6368027
26.730875 23.239126 7.5915422
26.414576 23.460562 7.6455474
26.626699 23.312519 7.6342745
26.127008 23.657804 7.6212673
26.289551 23.546885 7.6442666
25.69278 23.952627 7.6326089
25.874771 23.828424 7.6023083
25.40707 24.155226 7.62884
25.583761 24.029741 7.6476121
25.124601 24.342516 7.619596
31.380707 19.691044 7.8662376
31.342436 19.856157 7.8691392
30.998501 20.222 7.8777499
31.108515 20.204147 7.8719034
31.322487 20.133509 7.8636141
30.922642 20.424221 7.8803663
31.051249 20.334572 7.847486
30.618572 20.632021 7.8793015
30.796396 20.511517 7.8622446
26.731234 23.244932 7.8527737
26.862108 23.113165 7.8622837
26.420837 23.465191 7.9029098
26.598288 23.342405 7.8780842
26.120823 23.670008 7.8697639
26.305115 23.542973 7.8703299
25.710476 23.950882 7.8690248
25.877008 23.834923 7.84865
25.395393 24.174551 7.8643661
25.558893 24.060587 7.9069467
25.121912 24.352495 7.8564453
25.253902 24.262852 7.8478556
31.398226 19.699656 8.149889
31.340296 19.873825 8.1277008
30.996832 20.202002 8.0994997
31.128351 20.20299 8.0949163
31.327482 20.130175 8.1008177
30.935556 20.426815 8.1127214
31.043419 20.325359 8.1447983
30.442156 20.742874 8.1478024
30.614637 20.647589 8.1342201
30.793177 20.526995 8.1519003
30.301151 20.813494 8.1194391
29.70384 21.219799 8.1702871
29.872461 21.113176 8.1240301
30.026749 21.017176 8.1391706
29.40954 21.424559 8.1321077
28.17993 22.207481 8.1853714
28.088394 22.298403 8.1322317
27.411098 22.71319 8.1624546
26.956867 22.970268 8.2100334
27.144392 22.902952 8.1507349
26.704081 23.179478 8.1775723
26.858892 23.092051 8.1345091
27.029999 23.021101 8.0912838
26.421862 23.472876 8.1412516
26.618708 23.332579 8.1379404
26.136061 23.670673 8.1487341
26.309931 23.552017 8.1488695
25.698977 23.966825 8.0808115
25.888355 23.838074 8.110918
25.389986 24.179562 8.1172056
25.560091 24.065714 8.1533823
25.125198 24.364954 8.1135874
25.262592 24.269936 8.1002197
31.398949 19.700409 8.3857384
31.338533 19.903904 8.3479071
31.100731 20.21044 8.3599234
31.328979 20.134203 8.3513889
30.914467 20.455193 8.3511324
31.052528 20.356369 8.4015255
30.412672 20.685564 8.3380318
30.620537 20.654215 8.4204092
30.808138 20.528915 8.3510332
29.929499 20.975679 8.3346109
30.145735 20.871651 8.351285
30.334173 20.796234 8.406785
29.632101 21.180677 8.3305349
29.844515 21.107512 8.3747911
30.085571 21.025536 8.4740009
29.198 21.469917 8.3140554
29.384747 21.381496 8.3360224
29.613684 21.311457 8.4177523
28.914267 21.670792 8.3203344
29.105583 21.617062 8.3867455
29.298241 21.546228 8.4532394
28.456295 21.96961 8.2909451
28.654621 21.889059 8.3492184
28.841467 21.811447 8.3979111
28.133469 22.174564 8.3065672
28.359083 22.120995 8.3684254
28.558966 22.033609 8.4218454
27.700363 22.465879 8.2835484
27.895346 22.387228 8.3355751
28.128033 22.328812 8.4139585
27.42477 22.642843 8.2844734
27.613201 22.634996 8.379385
27.798557 22.556808 8.4165621
26.878 22.993 8.2720003
27.182287 22.91404 8.3606558
27.356089 22.823324 8.3809013
26.874201 23.145649 8.3771076
27.067923 23.048595 8.4257612
26.444426 23.466286 8.4025192
26.597683 23.362022 8.385108
26.755383 23.250383 8.451334
26.134256 23.681942 8.3910875
26.331247 23.546743 8.4017649
25.678894 23.988058 8.3484859
25.860962 23.866161 8.3666725
25.388294 24.187393 8.3628149
25.571568 24.062757 8.3758364
25.122541 24.374865 8.3597822
25.270926 24.271713 8.3514471
31.325018 19.897009 8.6504717
31.045153 20.217196 8.6341648
31.319889 20.128744 8.6194067
30.909512 20.468437 8.6285524
31.092512 20.340334 8.646904
30.617287 20.67112 8.6418476
30.803345 20.541815 8.6289845
30.212027 20.949244 8.6268339
30.360844 20.830618 8.6346731
29.888103 21.167271 8.6402035
30.080498 21.036777 8.5974827
29.424431 21.475716 8.5915833
29.622437 21.345411 8.6407747
29.752716 21.25807 8.6517143
29.153439 21.645378 8.627182
29.336767 21.535543 8.666853
28.693819 21.964378 8.5858889
28.888887 21.837936 8.6368971
28.399073 22.162855 8.6185255
28.588816 22.030745 8.6265383
27.947538 22.455774 8.6499987
28.125942 22.340811 8.6139154
28.252886 22.264183 8.6491051
27.632195 22.678146 8.6364775
27.807102 22.560354 8.599225
27.213211 22.959507 8.5962715
27.389563 22.834843 8.6519194
26.889904 23.16102 8.594449
27.055952 23.067575 8.6376371
26.459822 23.471207 8.6461658
26.627232 23.354309 8.6049013
26.755239 23.261694 8.651372
26.163563 23.674242 8.6271877
26.35491 23.542288 8.6375494
25.712946 23.97674 8.5695372
25.877666 23.868765 8.6170759
26.049793 23.755646 8.6944056
25.396666 24.208387 8.6305876
25.58691 24.07041 8.6371546
25.121521 24.386002 8.6262255
25.26829 24.286009 8.6489935
31.118109 20.225151 8.881094
31.321186 20.15498 8.861783
30.942001 20.410198 8.8843365
31.032705 20.393095 8.874342
30.632563 20.66717 8.8745222
30.797272 20.554298 8.871315
30.200764 20.966305 8.8684349
30.362808 20.836077 8.8885326
29.734882 21.231749 8.8996086
29.846476 21.174206 8.9023018
30.087164 21.042938 8.8511686
29.455429 21.465952 8.849556
29.605589 21.355782 8.9012966
29.122723 21.677616 8.8795567
29.326811 21.548115 8.8802509
28.630924 21.965406 8.8700876
28.864725 21.861343 8.8844213
28.405775 22.159023 8.8593903
28.533617 22.034204 8.8487692
27.957514 22.457859 8.8990459
28.100431 22.362455 8.8592033
28.258192 22.270353 8.9001961
27.431183 22.748455 8.8495455
27.641937 22.679989 8.8775549
27.829056 22.557865 8.8640032
27.20133 22.977636 8.8464813
27.350697 22.849077 8.8885555
26.878077 23.179255 8.849658
27.079208 23.060223 8.8817511
26.466112 23.479599 8.9039497
26.617556 23.374653 8.8593502
26.760479 23.268013 8.9008522
26.171846 23.682262 8.8777027
26.354803 23.555687 8.8786345
25.748528 23.968063 8.8037138
25.888943 23.874184 8.8589935
26.025932 23.784868 8.9032965
25.42601 24.19899 8.8657503
25.617168 24.06344 8.8758945
25.141228 24.383135 8.8754826
25.308802 24.277779 8.8836012
31.139963 20.201765 9.1120205
31.32128 20.134413 9.1393547
30.961443 20.366022 9.1202698
31.075359 20.354902 9.1638803
31.253092 20.25091 9.1526365
30.63578 20.677519 9.135582
30.803318 20.559803 9.1277246
30.213917 20.966814 9.096571
30.387751 20.832684 9.1271515
29.747822 21.244175 9.0513535
29.899008 21.179441 9.1197653
30.070871 21.068007 9.1490936
29.46216 21.477509 9.1493101
29.626398 21.362123 9.1216145
29.763172 21.27562 9.1992407
29.126406 21.68412 9.1303263
29.345903 21.546364 9.1011648
28.688208 21.976236 9.1308413
28.87431 21.866276 9.1093044
28.396112 22.18749 9.1358061
28.57007 22.066368 9.1021776
27.961132 22.458647 9.0971231
28.108118 22.370026 9.1404257
28.266829 22.276175 9.1459913
27.683306 22.666592 9.1188536
27.845098 22.558199 9.1345577
27.186749 22.998251 9.1011248
27.377838 22.871397 9.1410294
27.550989 22.755287 9.149003
26.883781 23.185827 9.1481953
27.076414 23.072721 9.0972853
26.474375 23.483736 9.146903
26.635223 23.370829 9.1031981
26.767761 23.266703 9.145998
26.172983 23.689131 9.1311255
26.339222 23.575489 9.1331949
25.855587 23.904747 9.1125574
26.032898 23.784733 9.1246405
25.428083 24.194868 9.1191397
25.615292 24.068729 9.1146135
25.138872 24.39817 9.1272345
25.316256 24.274883 9.1644602
31.146502 20.160336 9.3530169
31.3165 20.128168 9.4919996
30.970123 20.38862 9.3681602
31.089556 20.362375 9.3885698
31.25 20.265831 9.4761658
30.649 20.679274 9.3569078
30.834909 20.550177 9.3862877
30.215134 20.964022 9.3485975
30.407101 20.829311 9.3926878
30.545471 20.757067 9.4513998
29.881231 21.180862 9.3887463
30.074043 21.066763 9.3992682
29.627039 21.360188 9.3742332
29.757463 21.268089 9.4021606
29.145605 21.660772 9.3975992
29.345442 21.54957 9.3498745
28.892647 21.839876 9.372858
29.045103 21.758669 9.2994347
28.240536 22.241867 9.436801
28.373446 22.170139 9.3951359
28.572598 22.070309 9.3420401
27.931007 22.448084 9.3920794
28.118174 22.34864 9.379035
28.268145 22.282858 9.3551445
27.639046 22.662708 9.3730469
27.843742 22.538927 9.3629541
27.353485 22.852297 9.3742561
27.547501 22.751722 9.3520012
26.721888 23.220556 9.4433336
26.861506 23.149082 9.4016056
26.478874 23.488012 9.4041252
26.646278 23.358593 9.3775167
26.169491 23.696569 9.3504124
26.355783 23.57272 9.3876133
25.86059 23.9062 9.3591223
26.026133 23.795057 9.3760481
25.433666 24.201338 9.3703279
25.624128 24.068102 9.3604803
25.156485 24.395641 9.3714571
25.323973 24.277931 9.3984995
31.028288 20.237072 9.5987864
31.339754 20.130314 9.634655
30.979635 20.37735 9.6490507
31.100346 20.362513 9.6470833
31.260233 20.266821 9.6486034
30.669279 20.680235 9.6371679
30.844238 20.558224 9.6381702
30.166378 20.925348 9.576005
30.377333 20.818647 9.6407909
30.558397 20.756193 9.6481333
29.878706 21.105354 9.5724964
26.681499 23.2225 9.5004997
26.489752 23.48875 9.5947504
26.628311 23.397293 9.6181841
26.195963 23.690052 9.6139851
26.364643 23.576094 9.6181383
25.84647 23.928892 9.609725
26.045233 23.793219 9.5975418
25.458015 24.202587 9.5976315
25.631472 24.07847 9.6217251
25.155504 24.399054 9.6404982
25.32593 24.289633 9.5802126
32.404747 19.45475 9.9867496
32.268749 19.595751 9.9622498
31.036625 20.247377 9.7503757
31.34 20.157774 9.8807764
30.986444 20.361483 9.9020338
31.085859 20.320005 9.8917007
31.25889 20.277014 9.8972216
30.68668 20.673876 9.8782253
30.856646 20.555954 9.8715277
30.523218 20.788391 9.8757725
26.497334 23.491001 9.8216667
26.653076 23.390106 9.8584709
27.204889 23.314112 9.8841124
27.273169 23.290167 9.9308329
26.19129 23.705627 9.8513098
26.373352 23.581505 9.8732347
26.506001 23.5 9.9860001
25.879633 23.919405 9.8683081
26.050772 23.800848 9.8485155
25.462229 24.207148 9.8490582
25.64645 24.078651 9.8729744
25.153522 24.415565 9.8837261
25.335358 24.292875 9.8490744
32.856716 19.135548 10.164388
32.435966 19.470358 10.117325
32.625198 19.362015 10.153714
32.798 19.25 10.162
32.124596 19.676365 10.131416
32.326252 19.565201 10.11065
31.342543 20.136082 10.12236
30.984407 20.358669 10.119715
31.096281 20.345804 10.115072
31.272818 20.279839 10.145287
30.688116 20.678926 10.136154
30.862173 20.560099 10.112176
30.526318 20.792545 10.133813
26.872883 23.216274 10.129745
27.351574 23.220459 10.114417
26.643353 23.407534 10.141727
26.775898 23.284748 10.101895
27.2582 23.269001 10.010401
26.179338 23.725061 10.151222
26.365778 23.594872 10.116809
26.506668 23.502625 10.193209
25.879602 23.928518 10.149467
26.051535 23.810244 10.131289
25.462915 24.210258 10.136031
25.639299 24.091803 10.149174
25.124033 24.445631 10.130691
25.32102 24.305943 10.086323
32.470459 19.476486 10.398723
32.632534 19.361897 10.378948
32.796001 19.25 10.446
32.12833 19.676525 10.393896
32.31852 19.571737 10.381277
32.067596 19.752001 10.365001
31.317221 20.135311 10.357318
30.989559 20.384302 10.354624
31.127728 20.334873 10.350379
30.674784 20.699934 10.365952
30.848595 20.583252 10.373747
30.549826 20.78754 10.368299
26.899822 23.207281 10.348522
27.377083 23.209229 10.373167
26.66482 23.401299 10.383747
26.798779 23.279522 10.378247
27.1838 23.3363 10.3358
27.276249 23.279749 10.341249
26.216501 23.710625 10.397125
26.348421 23.61651 10.36033
26.509375 23.506498 10.402625
25.882603 23.93504 10.402281
26.090839 23.792645 10.378334
25.464396 24.218414 10.393353
25.629316 24.108624 10.407124
25.137436 24.450043 10.352412
25.31916 24.319332 10.348484
32.473999 19.470715 10.533714
32.653366 19.364658 10.576841
32.781502 19.258499 10.5835
32.358498 19.561333 10.523833
31.821577 19.9098 10.677223
31.431341 20.19417 10.614987
30.993322 20.387691 10.641164
31.098391 20.346987 10.62549
31.315083 20.273785 10.648981
30.671515 20.715427 10.644878
30.857983 20.587788 10.629369
30.546581 20.805046 10.628184
26.9097 23.214359 10.604929
26.65744 23.415709 10.611948
26.830074 23.276003 10.625959
27.203659 23.345268 10.67325
27.31921 23.273254 10.661375
26.225382 23.710739 10.603441
26.359978 23.620129 10.635759
26.520239 23.513639 10.652875
25.900806 23.931326 10.613961
26.098446 23.797773 10.607172
25.449112 24.24786 10.59775
25.619928 24.124306 10.606838
25.784777 24.015425 10.608119
25.151089 24.441441 10.636929
25.346439 24.318857 10.663515
32.480999 19.499001 10.901
32.636318 19.396374 10.914479
32.820919 19.268665 10.918249
32.184937 19.694073 10.858577
32.349239 19.585121 10.879603
31.867794 19.910456 10.849991
32.045277 19.790329 10.852692
31.438223 20.200237 10.872984
31.623566 20.07546 10.860755
30.986671 20.331921 10.893404
31.085205 20.377029 10.87318
31.298384 20.295429 10.898653
30.680676 20.723595 10.897018
30.842869 20.60924 10.870066
30.565008 20.80249 10.873675
26.919504 23.228647 10.854449
26.646379 23.435488 10.877717
26.814327 23.299417 10.870635
27.017 23.296 10.943
27.349722 23.294861 10.931792
26.228815 23.722143 10.849708
26.376251 23.62446 10.900878
26.530342 23.52002 10.898556
25.924667 23.9289 10.86097
26.102354 23.808626 10.861917
25.615873 24.138638 10.865607
25.791416 24.017942 10.828341
25.173212 24.442131 10.867572
25.371696 24.307516 10.885773
32.657097 19.388897 11.129155
32.831043 19.268147 11.105363
32.168938 19.720921 11.125032
32.342567 19.603222 11.127848
31.868778 19.923061 11.136852
32.043823 19.804363 11.127332
31.446608 20.203794 11.101922
31.631466 20.080748 11.114899
30.982742 20.339926 11.149995
31.090631 20.371439 11.122212
31.318602 20.28961 11.082779
30.717249 20.710693 11.152223
30.868687 20.602428 11.128183
31.016111 20.503057 11.147083
30.597443 20.791336 11.0949
26.912251 23.236799 11.09915
27.411367 23.208454 11.103507
26.653214 23.445251 11.140646
26.808035 23.314993 11.138387
27.136562 23.346367 11.102737
27.339855 23.352303 11.10733
26.240358 23.725286 11.148239
26.378595 23.630264 11.132219
26.533978 23.523642 11.101097
25.933916 23.931057 11.131006
26.117668 23.809046 11.138301
25.627264 24.13962 11.112481
25.793951 24.029732 11.148135
25.16069 24.461943 11.120056
25.374397 24.313765 11.125913
25.075705 24.519354 11.153253
32.629059 19.420126 11.362291
32.180798 19.723064 11.370953
32.367256 19.596798 11.370152
32.5 19.514 11.483
31.867702 19.933542 11.385269
32.061241 19.802254 11.372455
31.46187 20.204313 11.351574
31.63203 20.089861 11.359735
30.983147 20.359512 11.404005
31.114277 20.379984 11.390645
31.328991 20.295424 11.370326
30.725925 20.718861 11.403917
30.844322 20.631769 11.360068
31.016357 20.51334 11.395214
30.602146 20.802338 11.371274
26.908361 23.238861 11.352084
26.652849 23.453966 11.375401
26.819431 23.315149 11.380035
27.332542 23.320251 11.400374
26.246128 23.732582 11.40045
26.383396 23.638563 11.369026
26.542814 23.528837 11.349156
25.916082 23.955454 11.370566
26.106279 23.827284 11.37819
25.584785 24.181385 11.363935
25.797064 24.036463 11.371212
25.204504 24.441463 11.36896
25.365274 24.335884 11.383434
25.078575 24.529209 11.399385
32.639645 19.425678 11.635027
32.220554 19.709723 11.648056
32.354572 19.619282 11.637922
32.515762 19.511309 11.654721
31.885698 19.932539 11.605075
32.095161 19.791935 11.621318
31.466722 20.212259 11.644155
31.646383 20.092621 11.63028
30.980751 20.360102 11.647
31.12385 20.394812 11.622272
31.322876 20.309702 11.64679
30.730011 20.723713 11.64751
30.857224 20.635757 11.630506
31.029842 20.515949 11.600704
30.617235 20.802217 11.620941
26.9128 23.241703 11.602068
26.680765 23.44684 11.630307
26.817839 23.312853 11.599364
27.167667 23.419333 11.512667
27.348455 23.313467 11.552057
26.247704 23.744999 11.649176
26.376221 23.655685 11.633258
26.57482 23.521683 11.650952
25.920376 23.963268 11.629243
26.099104 23.844519 11.650249
25.614779 24.17119 11.639627
25.794262 24.048733 11.630692
25.194767 24.444199 11.601126
25.374836 24.338045 11.625176
25.072302 24.535696 11.626643
32.666473 19.41857 11.878039
32.23217 19.711834 11.902645
32.36158 19.624887 11.898846
32.52343 19.517002 11.896644
31.918833 19.918715 11.863261
32.10006 19.79796 11.858446
31.468555 20.218937 11.888062
31.627129 20.113836 11.872681
30.981649 20.383129 11.922306
31.103458 20.396938 11.872239
31.321733 20.317854 11.878096
30.733919 20.728416 11.89832
30.880787 20.62483 11.869456
31.031305 20.518873 11.849864
30.603546 20.819344 11.864438
28.446625 22.249748 11.971625
28.653292 22.143566 11.970448
28.895658 22.121128 11.943913
28.126099 22.456522 11.887026
28.375963 22.376017 11.960181
28.65959 22.392391 11.897069
28.104919 22.518917 11.904417
28.379356 22.609055 11.868412
28.545038 22.570129 11.850926
26.911781 23.219275 11.840989
26.691254 23.407265 11.8608
26.816216 23.297251 11.87025
26.242733 23.735722 11.898855
26.387598 23.638096 11.883684
26.565712 23.523079 11.880548
25.926739 23.941572 11.887262
26.118074 23.820574 11.874616
25.634933 24.141726 11.889562
25.811804 24.029272 11.847315
25.179932 24.450274 11.868925
25.376532 24.319229 11.874079
25.085714 24.521811 11.842012
32.64254 19.422638 12.144602
32.205437 19.704826 12.168902
32.36216 19.607489 12.149563
32.521187 19.516085 12.096714
31.868523 19.932276 12.14187
32.081116 19.795868 12.136953
31.459339 20.202854 12.127773
31.619337 20.101746 12.12849
30.949196 20.361385 12.163337
31.10618 20.38139 12.153934
31.314796 20.301903 12.131877
30.686115 20.723785 12.157887
31.018875 20.512375 12.088688
30.377531 20.924597 12.117325
30.58404 20.802023 12.101339
29.961071 21.20911 12.125458
29.197958 21.723198 12.116307
29.361124 21.620186 12.133186
28.899008 21.931116 12.110866
29.085623 21.814863 12.141062
28.457466 22.220949 12.110644
28.63031 22.116949 12.118767
28.819983 22.013277 12.160796
28.332563 22.322964 12.150227
27.731527 22.731777 12.101786
27.388123 22.947227 12.111179
27.618082 22.807711 12.142557
27.136045 23.134314 12.122458
27.303846 23.052534 12.205462
26.681168 23.425434 12.075217
26.867054 23.318443 12.160805
26.23077 23.725872 12.09376
26.369514 23.639656 12.127276
26.581741 23.528555 12.151683
25.913061 23.942852 12.085839
26.10714 23.842279 12.15941
25.473833 24.2225 12.036833
25.626753 24.168381 12.151284
25.794399 24.032797 12.129805
25.178848 24.455004 12.113786
25.348782 24.325478 12.115871
25.057177 24.563828 12.152968
32.49667 19.489668 12.264334
32.66032 19.434229 12.367027
32.198097 19.713638 12.359343
32.36861 19.627626 12.400923
32.540344 19.5275 12.403517
31.928629 19.91758 12.367565
32.083012 19.801498 12.385556
31.448547 20.233177 12.355117
31.634207 20.12891 12.379792
31.794167 20.022745 12.415123
31.139025 20.383715 12.381901
31.317562 20.324812 12.381602
30.734922 20.729235 12.35986
30.871386 20.610035 12.359448
31.041428 20.5221 12.359006
30.373285 20.960651 12.365558
30.591726 20.839832 12.370018
30.121046 21.15567 12.359655
30.275673 21.036406 12.354153
29.694742 21.446541 12.353421
29.885101 21.321316 12.365759
29.24576 21.744959 12.355329
29.378778 21.664064 12.363122
29.577141 21.532598 12.357158
28.915831 21.964785 12.355877
29.078896 21.840839 12.387948
28.620642 22.158798 12.360101
28.794245 22.052406 12.368284
28.207092 22.443577 12.371874
28.381622 22.321705 12.395357
27.747723 22.748169 12.4505
27.866074 22.658484 12.40164
27.430624 22.953779 12.398517
27.611631 22.846722 12.365232
26.992001 23.188 12.499
27.115791 23.169926 12.374964
27.322094 23.037954 12.370522
26.685898 23.450947 12.379276
26.881601 23.314838 12.390519
26.234711 23.733696 12.347263
26.38028 23.643614 12.388511
26.567802 23.553383 12.363575
25.891777 23.957317 12.379013
26.250271 23.760405 12.359468
25.398573 24.163258 12.480234
25.626842 24.153259 12.398136
25.807917 24.042259 12.345421
25.354162 24.316488 12.375944
25.07251 24.548532 12.337255
32.470573 19.477142 12.732715
32.644592 19.416042 12.652331
32.372612 19.605238 12.634892
32.53894 19.52952 12.590695
32.092297 19.799551 12.596197
31.605778 20.108641 12.628065
31.81575 20.0105 12.583876
30.574736 20.820864 12.56984
29.848207 21.298063 12.562324
29.58321 21.513794 12.515583
29.072708 21.805397 12.553805
28.367474 22.136803 12.603876
28.617079 22.082006 12.569387
28.826 22.008335 12.514
28.126295 22.340679 12.577182
28.339436 22.292782 12.536676
28.010666 22.516668 12.513
27.344704 22.844894 12.56638
27.548405 22.796444 12.538834
26.873585 23.107021 12.580153
27.117764 23.072632 12.530619
26.597984 23.342594 12.552319
26.848925 23.250769 12.532539
25.08984 24.287449 12.583446
32.349682 19.384796 12.815907
