# .PCD v0.7 - Point Cloud Data file format
VERSION 0.7
FIELDS x y z
SIZE 4 4 4
TYPE F F F
COUNT 1 1 1
WIDTH 474
HEIGHT 1
VIEWPOINT -18.2321 96.2205 -1.35163 -0.354149 -0.00701479 0.0211809 0.934923
POINTS 474
DATA ascii
-75.3125 -32.470169 14.915
-75.069 -32.193001 14.924
-74.663666 -31.817667 14.938667
-75.295998 -32.484001 15.123
-75.081001 -32.264 15.116
-74.846001 -32.042999 15.115
-74.587997 -31.806 15.104
-74.413002 -31.610001 15.101
-74.234001 -31.414 15.101
-71.286499 -28.473499 15.188
-74.750999 -31.816999 15.476
-73.861336 -30.890665 15.481999
-71.121002 -28.528 15.481
-71.253006 -28.434 15.453
-82.966057 -40.356495 15.640389
-78.185997 -35.758999 15.748
-78.376167 -35.613667 15.712499
-78.296005 -35.414497 15.677
-78.105743 -35.410751 15.723
-77.719002 -35.280998 15.742
-78.0625 -35.178497 15.677
-77.886597 -35.152798 15.713
-77.591003 -35.034 15.7215
-77.838341 -34.945667 15.669999
-77.589752 -34.851002 15.7005
-77.282501 -34.831501 15.741501
-77.644997 -34.727001 15.629
-77.387749 -34.653126 15.69625
-77.127327 -34.581665 15.723
-76.081001 -33.375252 15.658
-75.897003 -33.4095 15.687
-75.874199 -33.1366 15.6472
-75.635597 -33.121399 15.6828
-75.372498 -32.871666 15.679667
-75.147499 -32.639378 15.66575
-74.907921 -32.39225 15.675751
-74.916794 -32.141602 15.5908
-74.606491 -32.063599 15.6539
-74.862999 -31.956001 15.552
-74.654289 -31.832785 15.577071
-74.426331 -31.902498 15.674832
-74.834999 -31.729 15.517
-74.568001 -31.616999 15.527333
-74.336105 -31.646702 15.597101
-74.108917 -31.574667 15.661082
-74.406502 -31.4585 15.5235
-74.150131 -31.3505 15.56625
-73.909355 -31.364214 15.649429
-74.120125 -31.189625 15.521126
-73.859627 -31.119125 15.589126
-73.653862 -31.110287 15.641856
-73.796501 -30.952 15.5345
-73.620171 -30.896835 15.566499
-73.398697 -30.849798 15.6325
-71.932671 -29.349249 15.637166
-71.3255 -28.726831 15.654834
-71.167297 -28.568502 15.6248
-85.941498 -43.336998 15.9855
-85.654999 -43.0415 15.9755
-85.705002 -42.953999 15.993
-85.367996 -42.785 15.997
-85.255997 -42.657001 15.956
-85.094002 -42.502499 15.960501
-83.791 -41.263 15.966
-83.558998 -41.153 15.995
-83.431 -41.085999 15.962
-83.559502 -40.901497 15.9465
-83.433502 -40.910999 15.975
-83.160995 -40.8475 15.974
-83.250999 -40.716 15.949
-83.119331 -40.574665 15.912666
-82.901001 -40.57925 15.96925
-82.683998 -40.362999 15.964
-82.633629 -40.097248 15.927125
-82.421997 -40.097 15.937
-82.522003 -39.852001 15.867
-82.370499 -39.904999 15.92775
-82.148499 -39.814999 15.9515
-82.382835 -39.657001 15.855166
-82.150803 -39.663399 15.926399
-81.888 -39.547001 15.941
-82.095749 -39.385998 15.869
-81.925003 -39.356998 15.896
-81.675163 -39.330669 15.936333
-81.835999 -39.1525 15.8623
-81.592499 -39.128998 15.894
-81.432755 -39.084999 15.93825
-81.612 -38.889999 15.836
-81.347206 -38.857002 15.8916
-81.128998 -38.769501 15.946
-81.3125 -38.677002 15.8545
-81.174004 -38.585499 15.836499
-80.93325 -38.564751 15.96925
-81.003998 -38.423 15.875
-80.739998 -38.372002 15.932
-80.490997 -38.114998 15.931
-80.238754 -37.855751 15.9095
-79.282753 -36.61525 15.78175
-79.082916 -36.639751 15.872334
-79.151001 -36.438 15.783
-78.874367 -36.428997 15.861644
-78.673004 -36.253998 15.938999
-78.426834 -36.006836 15.8585
-78.344376 -35.867748 15.84575
-78.190002 -35.761497 15.8895
-78.356003 -35.708 15.755
-78.069336 -35.637665 15.861667
-77.972168 -35.534332 15.862999
-77.84333 -35.406502 15.865334
-77.726501 -35.2855 15.8985
-77.576401 -35.129997 15.882001
-77.497002 -35.055 15.773
-77.361 -34.907501 15.8895
-77.124397 -34.665802 15.874201
-76.898499 -34.434101 15.870799
-76.723495 -34.2505 15.9485
-76.129158 -33.6395 15.8755
-75.910751 -33.416836 15.854751
-75.638062 -33.135563 15.863439
-75.348335 -32.840332 15.866668
-75.159828 -32.645752 15.868584
-75.01075 -32.48875 15.900001
-74.840714 -32.318714 15.881571
-74.659752 -32.132084 15.891167
-74.418404 -31.885601 15.860901
-74.273994 -31.737833 15.858668
-74.124756 -31.582125 15.900375
-73.920746 -31.374748 15.905375
-73.772003 -31.222752 15.907249
-73.61425 -31.063751 15.900001
-73.400406 -30.8452 15.8776
-73.255249 -30.695499 15.899
-73.150162 -30.586832 15.855834
-72.905197 -30.3367 15.862599
-72.782501 -30.2075 15.9055
-72.620705 -30.044201 15.869499
-72.427299 -29.8435 15.8799
-72.287506 -29.700001 15.91
-72.133499 -29.544199 15.9015
-72.029663 -29.438833 15.866166
-71.939003 -29.347101 15.8498
-71.811333 -29.213333 15.860833
-71.67688 -29.072998 15.895875
-71.529831 -28.924833 15.851334
-71.439995 -28.833834 15.849167
-71.348999 -28.737499 15.9115
-71.2089 -28.596899 15.8687
-71.060173 -28.445833 15.850499
-86.141403 -43.9039 16.163198
-86.106995 -43.586334 16.053667
-85.865166 -43.602665 16.152416
-85.893494 -43.384998 16.050499
-85.606499 -43.362 16.116001
-85.807999 -43.234001 16.027
-85.595329 -43.124332 16.050667
-85.402206 -43.144501 16.128902
-85.514 -42.935001 16.018
-85.339005 -42.883003 16.055
-85.091904 -42.8265 16.125999
-85.083252 -42.588749 16.032249
-84.902 -42.62875 16.14225
-84.819748 -42.438 16.037998
-84.650124 -42.372749 16.1465
-84.423584 -42.13158 16.104084
-84.12867 -41.839001 16.136999
-83.911758 -41.620247 16.09725
-83.80687 -41.455627 16.115002
-83.636665 -41.333332 16.1385
-83.510498 -41.204498 16.1605
-83.405495 -41.100334 16.0865
-83.147507 -40.835197 16.129398
-82.903999 -40.581665 16.141836
-82.695251 -40.3685 16.11375
-82.566498 -40.237167 16.137001
-82.437752 -40.105629 16.112625
-82.287331 -39.9515 16.135
-82.158005 -39.820751 16.10075
-82.043335 -39.700668 16.099667
-81.897331 -39.551998 16.139
-81.765503 -39.417999 16.143167
-81.650505 -39.297665 16.151833
-81.516167 -39.161667 16.141335
-81.37925 -39.023499 16.084
-81.269257 -38.907249 16.1045
-81.147667 -38.778835 16.145166
-81.012749 -38.638 16.18725
-80.921501 -38.549168 16.088999
-80.754997 -38.380001 16.160999
-80.748001 -38.376499 16.063
-80.584663 -38.204334 16.123167
-80.5 -38.119999 16.063
-80.3395 -37.951664 16.125834
-80.197754 -37.806 16.104
-80.058167 -37.66283 16.088667
-79.593994 -37.189301 16.130402
-79.352287 -36.938862 16.150145
-79.102669 -36.683254 16.145916
-78.927505 -36.502499 16.249001
-78.851105 -36.427399 16.1336
-78.685753 -36.26075 16.11375
-78.556999 -36.131252 16.099751
-78.44883 -36.017498 16.144167
-78.333336 -35.898998 16.109333
-78.20517 -35.769165 16.074333
-78.091003 -35.649334 16.145666
-77.992668 -35.54483 16.145666
-77.83625 -35.387123 16.172251
-77.745247 -35.29475 16.103249
-77.586922 -35.129501 16.146334
-77.3554 -34.890099 16.123299
-77.120605 -34.6511 16.1252
-76.908577 -34.433414 16.147417
-76.73175 -34.254501 16.08625
-76.579079 -34.093998 16.144417
-76.370399 -33.878601 16.124899
-76.157715 -33.658428 16.137285
-75.896599 -33.3918 16.122601
-75.755501 -33.2495 16.152
-75.631699 -33.1213 16.0772
-75.397301 -32.880199 16.1287
-75.179245 -32.655415 16.150167
-75.027504 -32.497166 16.139833
-74.868919 -32.336498 16.143333
-74.646599 -32.109398 16.0914
-74.421944 -31.878937 16.143814
-74.291504 -31.7465 16.102249
-74.132797 -31.581202 16.136398
-73.936996 -31.382124 16.098499
-73.792999 -31.2325 16.144501
-73.636833 -31.074333 16.139668
-73.436333 -30.868166 16.149084
-73.275749 -30.705502 16.091251
-73.144081 -30.566666 16.148582
-72.948105 -30.366299 16.1362
-72.797005 -30.214998 16.108999
-72.649925 -30.062668 16.10125
-72.509003 -29.916 16.142502
-72.426003 -29.831299 16.1091
-72.303749 -29.707748 16.098749
-72.169693 -29.5716 16.135401
-72.017502 -29.415001 16.091751
-71.926506 -29.320333 16.141167
-71.830246 -29.22225 16.090752
-71.686501 -29.072001 16.123199
-71.555 -28.936335 16.137667
-71.46875 -28.847 16.10775
-71.306396 -28.683697 16.1276
-71.181168 -28.555334 16.144335
-71.08683 -28.457666 16.154167
-86.62175 -44.406502 16.395
-86.490494 -44.2575 16.398251
-86.341003 -44.106998 16.369665
-86.150597 -43.909401 16.380598
-85.846878 -43.594627 16.402626
-85.628822 -43.374332 16.349333
-85.3834 -43.121899 16.3734
-85.140297 -42.8675 16.3717
-84.921997 -42.640251 16.4025
-84.770836 -42.488003 16.361834
-84.638748 -42.35025 16.4025
-84.503494 -42.209999 16.4615
-84.406998 -42.116798 16.3449
-84.158005 -41.862202 16.374899
-83.929337 -41.629833 16.353334
-83.792496 -41.484249 16.38575
-83.6605 -41.3465 16.394249
-83.524666 -41.211834 16.363665
-83.377342 -41.061501 16.354834
-83.180252 -40.859085 16.365665
-82.918877 -40.590122 16.389124
-82.683754 -40.347 16.375626
-82.583496 -40.246498 16.3395
-82.464249 -40.119499 16.390251
-82.306252 -39.961998 16.38525
-82.178001 -39.831501 16.351168
-82.062172 -39.711334 16.365999
-81.916252 -39.5625 16.38875
-81.785995 -39.429001 16.393499
-81.666672 -39.306168 16.372
-81.5345 -39.171749 16.38925
-81.404839 -39.037167 16.365166
-81.293327 -38.919498 16.3535
-81.161751 -38.786499 16.390999
-81.031502 -38.647251 16.400499
-80.905251 -38.519249 16.360001
-80.78183 -38.393337 16.360834
-80.645752 -38.256248 16.39925
-80.550377 -38.161625 16.329874
-80.394997 -38.002666 16.355665
-80.277168 -37.875832 16.348833
-80.166328 -37.760334 16.348
-80.040169 -37.632336 16.348999
-79.916504 -37.504501 16.4105
-79.832497 -37.420502 16.349333
-79.66925 -37.254501 16.390249
-79.538826 -37.121002 16.362165
-79.362999 -36.940376 16.391251
-79.182755 -36.754997 16.38475
-79.063995 -36.632248 16.389
-78.942749 -36.510002 16.394001
-78.828247 -36.39225 16.391251
-78.704674 -36.270332 16.352667
-78.577827 -36.142166 16.355
-78.466248 -36.026749 16.41275
-78.351166 -35.908333 16.362667
-78.219162 -35.776669 16.346334
-78.0662 -35.615402 16.403
-77.998001 -35.548 16.299999
-77.829117 -35.368374 16.393749
-77.608368 -35.140251 16.3895
-77.396805 -34.921997 16.378002
-77.155502 -34.674999 16.387083
-76.987 -34.502998 16.389999
-76.819122 -34.328247 16.400249
-76.747002 -34.262501 16.2565
-76.602371 -34.105125 16.399626
-76.371399 -33.868698 16.3776
-76.009163 -33.495167 16.342499
-75.8452 -33.330402 16.366499
-75.112167 -32.575748 16.37425
-74.900291 -32.357101 16.3894
-74.676834 -32.130249 16.354584
-74.512337 -31.960999 16.3685
-74.357002 -31.801397 16.382498
-74.1717 -31.6108 16.376202
-74.006332 -31.443335 16.359167
-73.907005 -31.3405 16.352165
-73.811333 -31.241501 16.361334
-73.6688 -31.095499 16.3685
-73.508163 -30.931168 16.363167
-73.404335 -30.823334 16.387001
-73.297501 -30.715668 16.341999
-73.166245 -30.576876 16.396374
-73.0065 -30.413 16.42
-72.937248 -30.344624 16.345501
-72.819496 -30.225168 16.344168
-72.674332 -30.073919 16.354332
-72.524498 -29.923666 16.346167
-72.427246 -29.820751 16.3915
-72.322502 -29.716833 16.344667
-72.173294 -29.562597 16.369999
-72.039497 -29.425169 16.351831
-71.952499 -29.3325 16.40675
-71.806419 -29.185251 16.353167
-71.669006 -29.042999 16.401501
-71.571503 -28.94425 16.414001
-71.442398 -28.813299 16.331701
-71.311668 -28.682833 16.415333
-86.587334 -44.362667 16.624832
-86.5 -44.263 16.558001
-86.357498 -44.116249 16.598751
-86.159828 -43.907749 16.641249
-85.842003 -43.581249 16.626249
-85.650841 -43.386837 16.641167
-85.417076 -43.146835 16.647583
-85.155899 -42.876598 16.622301
-84.890167 -42.599167 16.643499
-84.790497 -42.499001 16.605
-84.654671 -42.359165 16.649334
-84.514671 -42.216167 16.643999
-84.369164 -42.0695 16.634501
-84.149605 -41.844101 16.629601
-83.947502 -41.639999 16.609501
-83.812164 -41.495167 16.630999
-83.675995 -41.355247 16.6
-83.545998 -41.223999 16.636499
-83.394669 -41.071335 16.625666
-83.263664 -40.936001 16.632833
-83.134499 -40.80275 16.613251
-83.0065 -40.668499 16.695
-82.900879 -40.565002 16.615625
-82.670502 -40.324421 16.637917
-82.485001 -40.130665 16.642
-82.326836 -39.973 16.636833
-82.197495 -39.841751 16.602249
-82.084999 -39.723331 16.644333
-81.935333 -39.572666 16.638334
-81.801666 -39.438 16.641834
-81.686249 -39.317001 16.610249
-81.555 -39.182667 16.638166
-81.427498 -39.048752 16.61475
-81.31675 -38.932251 16.60125
-81.1875 -38.799835 16.639666
-81.050499 -38.657749 16.616001
-80.922745 -38.529251 16.605999
-80.803337 -38.404667 16.623667
-80.669998 -38.268665 16.645834
-80.549339 -38.145668 16.650335
-80.420326 -38.015499 16.650499
-80.300995 -37.8885 16.6425
-80.190666 -37.772999 16.6415
-80.0625 -37.644333 16.642332
-79.935829 -37.5145 16.653
-79.811996 -37.389999 16.585251
-79.690002 -37.265751 16.601749
-79.561005 -37.132664 16.6525
-79.434753 -37.005753 16.603001
-79.325752 -36.89275 16.598
-79.196999 -36.762749 16.608501
-79.078247 -36.639999 16.596251
-78.959251 -36.518501 16.585751
-78.844749 -36.401001 16.598251
-78.72525 -36.280998 16.591749
-78.603996 -36.155331 16.641001
-78.491005 -36.039501 16.641832
-78.348251 -35.890125 16.65275
-78.242996 -35.788498 16.536999
-78.08075 -35.617168 16.650501
-77.852081 -35.379749 16.648165
-77.632912 -35.1525 16.644251
-76.620621 -34.11425 16.60125
-74.141998 -31.593376 16.578125
-74.014008 -31.448 16.566
-73.884003 -31.331501 16.570999
-73.824005 -31.248001 16.559
-73.629501 -31.062834 16.556334
-73.523003 -30.938 16.530001
-72.836998 -30.233 16.52
-72.679245 -30.10675 16.548248
-72.541 -29.931 16.521
-72.436005 -29.856499 16.546
-72.331001 -29.721001 16.518
-72.2005 -29.609501 16.521999
-72.041504 -29.456001 16.519501
-71.950996 -29.332001 16.507
-71.783493 -29.176498 16.507999
-71.586998 -29.01 16.525
-71.422997 -28.83 16.52
-85.898994 -43.630104 16.870102
-85.672668 -43.398666 16.921667
-85.505997 -43.229 16.940001
-85.413666 -43.134335 16.877167
-85.144394 -42.856102 16.8759
-84.388 -42.08025 16.893
-84.262001 -41.945999 16.965
-84.165794 -41.853401 16.8426
-83.896996 -41.577248 16.851252
-83.694664 -41.365665 16.856001
-83.550247 -41.226749 16.90575
-83.414162 -41.081669 16.864332
-83.268494 -40.938999 16.901501
-82.498001 -40.138 16.812
-82.313332 -39.967667 16.898333
-82.189499 -39.83075 16.864748
-82.056999 -39.710999 16.891499
-81.937752 -39.574501 16.88475
-81.824005 -39.449501 16.875999
-81.673004 -39.311665 16.8535
-81.571999 -39.192001 16.838501
-81.459167 -39.089001 16.848167
-81.331749 -38.940002 16.799749
-81.20034 -38.830669 16.887001
-81.060501 -38.663502 16.812
-80.940247 -38.53825 16.803749
-80.814835 -38.422333 16.809334
-80.693001 -38.279999 16.844
-80.572998 -38.190498 16.867001
-80.442001 -38.027 16.848
-80.304665 -37.914669 16.851667
-80.204002 -37.779999 16.837
-80.061996 -37.679501 16.851999
-79.947998 -37.521 16.816
-79.808838 -37.411831 16.822001
-79.704498 -37.272999 16.796
-79.511002 -37.110001 16.833
-79.445496 -37.011002 16.7955
-79.324997 -36.894001 16.788502
-79.212502 -36.7705 16.754501
-79.075996 -36.662334 16.796333
-78.973 -36.525501 16.762001
-78.8125 -36.387001 16.779999
-78.278503 -35.841499 16.7735
-77.933998 -35.521 16.785
-77.852997 -35.415001 16.764999
