# .PCD v0.7 - Point Cloud Data file format
VERSION 0.7
FIELDS x y z
SIZE 4 4 4
TYPE F F F
COUNT 1 1 1
WIDTH 756
HEIGHT 1
VIEWPOINT -18.2321 96.2205 -1.35163 -0.354149 -0.00701479 0.0211809 0.934923
POINTS 756
DATA ascii
19.634834 95.54966 31.344666
19.624166 95.831665 31.347334
19.6315 95.543335 31.642668
19.623667 95.837166 31.651667
19.591833 96.145164 31.623999
19.630001 95.545502 31.8955
19.620251 95.829758 31.90675
19.597126 96.154129 31.870625
19.627501 95.544502 32.145664
19.616749 95.821251 32.092251
19.593332 96.167 32.074001
19.625999 95.543999 32.403
19.613832 95.815163 32.348667
19.605667 96.136169 32.357666
19.736 98.160004 32.398003
19.62925 95.56675 32.599754
19.615999 95.835999 32.607498
19.6075 96.153503 32.584999
19.5965 96.406998 32.584499
19.744499 97.874496 32.747002
19.8001 97.913002 32.626801
19.734001 98.158333 32.654499
19.722666 98.447998 32.645668
19.462334 100.4045 32.635666
19.625 95.556 32.855167
19.615166 95.840492 32.863331
19.604166 96.146492 32.841999
19.5945 96.40551 32.844166
19.74 97.858002 32.894997
19.802 97.775002 32.763
19.734001 98.164749 32.883003
19.722 98.4515 32.905502
19.71175 98.765747 32.905251
19.4715 100.08325 32.914501
19.4585 100.3965 32.894001
19.448999 100.726 32.9025
19.625666 95.569 33.150665
19.61025 95.825745 33.116997
19.605 96.158997 33.100502
19.5935 96.410995 33.100998
19.582001 96.715256 33.11425
19.738501 97.860748 33.109253
19.730333 98.153831 33.144165
19.721001 98.456497 33.119999
19.710251 98.764252 33.098999
19.600933 99.144089 33.117603
19.4925 99.475006 33.202
19.506001 99.537994 33.066498
19.484001 99.778252 33.088249
19.471001 100.08966 33.144833
19.458 100.401 33.112251
19.445999 100.71725 33.077499
19.622501 95.5625 33.395248
19.611166 95.839836 33.344166
19.601667 96.152 33.351334
19.591166 96.409332 33.355331
19.582335 96.723167 33.340664
19.708334 98.763336 33.352001
19.574642 99.11071 33.384144
19.487749 99.458 33.411251
19.481501 99.774666 33.355335
19.4695 100.0915 33.409
19.457499 100.40667 33.345333
19.445166 100.72183 33.348999
19.42675 101.376 33.400497
19.57225 102.88125 33.418999
19.558332 103.21799 33.379002
19.420101 103.408 33.3773
19.522001 103.40967 33.366665
19.620501 95.561249 33.584999
19.609335 95.839836 33.648834
19.599669 96.150665 33.594334
19.592499 96.422997 33.582748
19.579834 96.722664 33.646336
19.702 98.828369 33.655125
19.568222 99.089195 33.598083
19.486834 99.460999 33.641666
19.481001 99.784332 33.660664
19.469667 100.09933 33.608997
19.455666 100.41034 33.648998
19.444666 100.73034 33.654663
19.569666 102.87833 33.639668
19.485001 103.229 33.710999
19.556334 103.21833 33.620667
19.396801 103.35364 33.620235
19.509501 103.349 33.5495
19.34725 103.68975 33.585999
19.619833 95.568329 33.847836
19.608501 95.845505 33.903999
19.598499 96.155495 33.838165
19.590666 96.424995 33.845165
19.5805 96.735504 33.907501
19.568501 97.055496 33.91325
19.559 98.744003 33.972
19.624733 98.859482 33.862999
19.499001 99.155998 33.986
19.502666 99.168335 33.834
19.486 99.4655 33.904503
19.479 99.7845 33.916504
19.467667 100.10033 33.845669
19.4555 100.41949 33.908997
19.4445 100.74001 33.915501
19.435501 101.0645 33.889252
19.4245 101.3845 33.901501
19.413 102.6705 33.93
19.438 102.8925 33.882999
19.542334 102.88116 33.878998
19.416998 103.09711 33.831501
19.532499 103.10001 33.7845
19.35825 103.35025 33.899498
19.344667 103.687 33.848667
19.334999 104.014 33.860668
19.619499 95.5765 34.104
19.605333 95.841003 34.133335
19.596334 96.154503 34.144001
19.589001 96.427002 34.1035
19.578499 96.73175 34.118248
19.567667 97.059502 34.140667
19.5585 97.346657 34.156834
19.5425 98.142502 34.188
19.630199 98.394394 34.099003
19.613214 98.614922 34.074856
19.518499 98.897995 34.113503
19.499001 99.158501 34.105499
19.486 99.472244 34.084751
19.475332 99.770996 34.141338
19.464666 100.09399 34.1465
19.453835 100.41917 34.139832
19.444 100.74249 34.0965
19.431334 101.05399 34.144001
19.421749 101.38125 34.119251
19.412001 101.715 34.09
19.403666 102.03767 34.152668
19.396 102.40134 34.158337
19.405001 102.63499 34.098499
19.410999 102.855 34.073002
19.374001 103.02925 34.0975
19.353666 103.33466 34.157001
19.341999 103.6825 34.112
19.33275 104.011 34.0835
19.320665 104.37699 34.148666
19.311001 104.73425 34.119999
19.299168 105.06 34.140667
19.287333 105.40301 34.106667
19.617001 95.573158 34.358501
19.60475 95.846252 34.384251
19.596001 96.1595 34.401497
19.585999 96.420677 34.356503
19.575666 96.729004 34.342667
19.564999 97.055496 34.396
19.55625 97.346748 34.382751
19.546165 97.640167 34.359165
19.535751 97.948753 34.4165
19.5455 98.162247 34.368999
19.545502 98.328499 34.3265
19.522667 98.579674 34.345997
19.506666 98.849159 34.357166
19.493334 99.142159 34.361668
19.482332 99.464996 34.35083
19.4725 99.767502 34.403999
19.462666 100.09434 34.396999
19.452499 100.4205 34.403999
19.441332 100.73783 34.359669
19.428751 101.05051 34.402
19.421167 101.38567 34.352497
19.409834 101.71117 34.356167
19.399 102.02234 34.402
19.387751 102.369 34.409
19.375334 102.6795 34.352001
19.359665 102.964 34.365997
19.367001 103.004 34.433998
19.347 103.30925 34.41275
19.33725 103.66825 34.37075
19.313 103.918 34.439499
19.319 104.09033 34.349667
19.3195 104.3775 34.3535
19.297251 104.67075 34.366249
19.265499 104.89101 34.442001
19.268 105.174 34.404003
19.198 105.351 34.493
19.285 105.3985 34.312
19.214001 105.57233 34.446003
19.605 95.852997 34.597
19.595001 96.167007 34.615749
19.58675 96.431999 34.585751
19.575666 96.739662 34.641998
19.554874 97.100624 34.679001
19.555 97.348999 34.635666
19.538166 97.611839 34.63483
19.525002 97.904495 34.6535
19.485001 98.044998 34.733002
19.518999 98.209328 34.635334
19.48 98.380997 34.745499
19.469 98.675003 34.702
19.51425 98.545746 34.589001
19.4725 98.867996 34.681999
19.508499 98.863495 34.571503
19.486 99.112 34.60033
19.465334 99.388664 34.626667
19.426666 99.670998 34.699001
19.45175 99.857002 34.6325
19.410398 100.1394 34.654999
19.42 100.35876 34.637249
19.402002 100.62139 34.631996
19.379112 100.88967 34.656448
19.362101 101.13219 34.660801
19.349001 101.39951 34.653667
19.376665 101.6095 34.577335
19.326166 101.85484 34.642002
19.351999 102.19 34.59
19.282501 102.388 34.677498
19.219 102.644 34.736
19.341999 102.511 34.565002
19.243999 102.779 34.700001
19.3295 102.813 34.571499
19.231998 103.121 34.676003
19.302502 103.081 34.580002
19.198 103.319 34.689999
19.295 103.452 34.583
19.2915 103.6225 34.552498
19.214001 103.8265 34.621002
19.304001 103.875 34.549
19.187 104.092 34.665501
19.277 104.16 34.527
19.172001 104.395 34.646
19.236 104.738 34.513
19.268999 104.525 34.521999
19.175751 104.81799 34.593498
19.175499 105.1295 34.566002
19.145666 105.611 34.578671
19.483 95.943001 34.967999
19.557375 95.903374 34.856998
19.481499 96.111496 34.93425
19.56525 96.181747 34.827999
19.550333 96.381004 34.818668
19.4645 96.584 34.923
19.549999 96.620003 34.811001
19.431999 96.927505 34.961998
19.524 96.872993 34.834332
19.434999 97.116997 34.965
19.514 97.156494 34.837997
19.436666 97.360008 34.916668
19.504 97.4515 34.8125
19.4345 97.635757 34.904999
19.425333 97.875 34.884666
19.506001 97.816002 34.818001
19.41375 98.139496 34.897499
19.407 98.374001 34.8745
19.426332 98.64267 34.838665
19.389 98.918503 34.834
19.372499 99.161003 34.850666
19.389999 99.372002 34.805668
19.380667 99.567329 34.795666
19.345749 99.893753 34.797501
19.317501 100.125 34.837502
19.311001 100.462 34.817001
19.306999 100.628 34.796501
19.285 101.086 34.799
19.243999 101.637 34.784
19.247999 102.031 34.765999
19.226999 102.282 34.757
19.319 104.4 34.977001
19.302 104.718 34.999001
19.294001 105.066 34.951
19.281 105.404 34.93
19.264999 105.735 34.951
19.463001 95.848 35.047501
19.452 96.151001 35.044998
19.434 96.606003 35.039249
19.396 97.278999 35.014
19.447498 100.426 35.202003
19.43 100.715 35.242001
19.440001 100.763 35.178001
19.3095 104.35201 35.0825
19.299665 104.71567 35.160999
19.28875 105.04175 35.088001
19.276001 105.38 35.110497
19.247 105.646 35.169998
19.26 105.71 35.106998
19.598499 95.855499 35.444
19.594 96.192505 35.416
19.58 96.428658 35.376667
19.434 100.74 35.332001
19.310833 104.37067 35.362835
19.300667 104.73 35.412666
19.287666 105.04568 35.358334
19.276333 105.38967 35.341335
19.247 105.65 35.251999
19.26 105.726 35.361
19.267 105.764 35.458
19.598 95.859001 35.638668
19.591499 96.186752 35.588249
19.583 96.452995 35.598503
19.358376 104.38063 35.647873
19.297335 104.72167 35.658665
19.286251 105.04774 35.58675
19.276749 105.40225 35.61525
19.2605 105.7405 35.739998
19.2645 105.75549 35.578499
19.597334 95.867332 35.874001
19.5875 96.177498 35.849499
19.581999 96.457001 35.853336
19.295 104.72 35.885498
19.275002 105.40299 35.843002
19.6 95.887329 36.113335
19.586666 96.187004 36.151669
19.574501 96.433502 36.142666
19.271667 105.39883 36.1595
19.597166 95.884499 36.357834
19.585999 96.191322 36.386333
19.575251 96.447998 36.414249
19.594 95.879997 36.654999
19.584 96.190002 36.60025
19.574167 96.451996 36.644169
19.5905 95.875252 36.90575
19.581333 96.188332 36.853001
19.578499 96.483002 36.916
19.586998 95.86525 37.097752
19.575335 96.167328 37.144501
19.56675 96.434753 37.113998
19.590334 95.893333 37.361668
19.577499 96.188004 37.3815
19.567499 96.448158 37.347168
19.549 96.717003 37.362
19.559 96.768997 37.460999
19.584499 95.874001 37.608498
19.578999 96.204498 37.6045
19.567001 96.456329 37.651333
19.5525 96.744499 37.648499
19.556999 96.761002 37.535
19.587 95.897751 37.873249
19.5725 96.183662 37.856998
19.567501 96.468498 37.911999
19.5515 96.744995 37.805
19.556 96.776001 37.937
19.584 95.892334 38.146
19.572668 96.195335 38.111004
19.5655 96.469505 38.142834
19.555 96.776505 38.11525
19.582335 95.894341 38.382332
19.573668 96.209343 38.353668
19.564499 96.474998 38.41
19.546 96.741997 38.318001
19.582666 95.907005 38.624004
19.569334 96.203331 38.654499
19.563499 96.47625 38.58675
19.577 95.88633 38.852329
19.569 96.210999 38.8885
19.559 96.464661 38.84
19.578333 95.903999 39.097
19.568335 96.217995 39.149002
19.5595 96.483002 39.151669
19.578001 95.91433 39.352001
19.56625 96.218246 39.40625
19.560001 96.4935 39.387749
19.578333 95.928993 39.661999
19.565001 96.220001 39.547001
19.561251 96.43425 39.6465
19.5735 95.918747 39.916252
19.564833 96.231667 39.857834
19.554251 96.489502 39.905502
19.574001 95.926498 40.099998
19.563 96.232498 40.090748
19.552168 96.490166 40.1385
19.542334 96.798004 40.094669
19.57 95.918495 40.361668
19.559334 96.228333 40.348331
19.550499 96.490997 40.406502
19.479 96.879997 40.442001
19.540501 96.799255 40.375999
19.557669 95.871666 40.621334
19.493 96.225998 40.736
19.531668 96.105324 40.643169
19.458 96.418999 40.737999
19.528 96.392998 40.604752
19.482 96.528 40.706001
19.5065 96.643005 40.632
19.477999 96.883339 40.685001
19.517 96.882507 40.569
19.464668 97.150841 40.6675
19.487 95.896004 40.769001
19.57 95.945 40.945
19.483 96.181999 40.799
19.51 96.676003 40.928001
19.394333 96.820335 40.90633
19.582834 95.902496 41.125332
19.560501 96.264671 41.153332
19.4445 96.736496 41.066002
19.53525 96.625877 41.077499
19.337713 96.82 41.112572
19.524 96.757996 41.245499
19.557999 96.265503 41.388248
19.552 96.538673 41.351997
19.464748 96.85025 41.376747
19.528999 96.789001 41.419502
19.559668 96.282997 41.658665
19.55175 96.551498 41.620499
19.4695 96.880501 41.613998
19.535334 96.832336 41.641003
19.248001 105.093 41.5625
19.254 105.133 41.708
19.558498 96.289001 41.883003
19.549667 96.551003 41.856335
19.480499 96.944 41.804001
19.53825 96.856506 41.915497
19.466999 97.050995 41.939003
19.25375 105.14175 41.904251
19.239 105.4665 41.914497
19.557333 96.295662 42.149334
19.547001 96.552338 42.167999
19.537668 96.863991 42.142666
19.461 97.112755 42.09325
19.507 97.089996 42.153
19.221001 104.585 42.084999
19.247999 105.128 42.221001
19.2505 105.134 42.096001
19.238667 105.47533 42.133335
19.550751 96.276245 42.405251
19.54425 96.549751 42.391747
19.53425 96.857498 42.404503
19.465 97.223 42.308998
19.520666 97.166328 42.347668
19.453999 97.348 42.457001
19.458 97.539001 42.469002
19.516499 97.823997 42.388
19.381901 100.3914 42.3451
19.247002 105.13049 42.416252
19.553999 96.301666 42.640667
19.542665 96.555336 42.658665
19.532501 96.859497 42.5905
19.522249 97.185501 42.622253
19.470001 97.432999 42.5755
19.509501 97.460495 42.699501
19.465 97.589996 42.737
19.511999 97.806999 42.501999
19.497999 98.098999 42.540001
19.504 98.136002 42.639
19.476999 98.339996 42.720001
19.518999 98.547997 42.724998
19.3778 100.15901 42.647804
19.367001 100.324 42.549
19.360001 100.664 42.589001
19.389 100.826 42.742001
19.320999 101.601 42.629501
19.337 102.45 42.68
19.245333 105.13166 42.654335
19.55275 96.307251 42.908501
19.54125 96.555756 42.882999
19.532501 96.871002 42.867001
19.523001 97.198334 42.852997
19.51025 97.473251 42.890499
19.493 97.733002 42.882999
19.462 97.816673 42.886337
19.449501 98.040001 42.881001
19.4785 98.358505 42.933502
19.531 98.269997 42.782001
19.4765 98.704498 42.845001
19.523001 98.574997 42.903
19.435831 98.968506 42.89267
19.392599 99.868004 42.861599
19.381001 100.0295 42.788498
19.389 100.453 42.939999
19.3915 100.8405 42.872501
19.382999 101.16933 42.866669
19.372499 101.4945 42.879501
19.361 101.623 42.806999
19.319748 101.8765 42.876499
19.303001 102.0785 42.850998
19.327251 102.4105 42.898003
19.344501 102.6865 42.827499
19.297834 102.87833 42.932163
19.230499 103.4635 42.8825
19.238001 103.875 42.825001
19.24275 105.12625 42.889748
19.549 96.298004 43.12833
19.540001 96.563332 43.151333
19.529499 96.8675 43.084
19.52 97.196999 43.099335
19.509333 97.482666 43.161671
19.501333 97.786995 43.153332
19.489 98.082001 43.153503
19.442333 98.304993 43.120331
19.4345 98.59375 43.120502
19.453501 98.861252 43.138504
19.42 99.145248 43.15575
19.396 99.399666 43.141003
19.385668 99.574837 43.065502
19.356001 99.914001 43.032001
19.413 100.209 43.241001
19.403666 100.53667 43.143665
19.39275 100.857 43.1115
19.379499 101.16516 43.133167
19.372 101.496 43.005001
19.373001 101.508 43.139
19.357666 101.81333 43.141663
19.345501 102.113 43.146
19.330999 102.447 43.192001
19.239 102.702 43.123001
19.292665 102.61733 43.102665
19.276001 102.8935 43.073502
19.233999 103.081 43.040001
19.2925 103.80251 43.195499
19.254667 104.81699 43.128338
19.2465 105.1575 43.140999
19.230999 105.48225 43.109497
19.548668 96.308998 43.37833
19.540249 96.572502 43.3815
19.530668 96.885674 43.366669
19.520666 97.212334 43.352665
19.5105 97.497749 43.395
19.500999 97.795502 43.383247
19.489668 98.097664 43.366333
19.48225 98.392746 43.384251
19.470501 98.698502 43.422501
19.421501 98.979996 43.378998
19.414 99.119003 43.262001
19.413 99.669998 43.385498
19.424999 99.910004 43.449001
19.413 100.2195 43.372498
19.401335 100.53833 43.396
19.389666 100.855 43.342999
19.382 101.19051 43.425499
19.368999 101.495 43.301498
19.370001 101.505 43.435001
19.358749 101.831 43.3825
19.348333 102.13367 43.368664
19.334665 102.47167 43.371334
19.3255 102.8035 43.394501
19.314499 103.112 43.421501
19.302999 103.457 43.368999
19.2915 103.809 43.370499
19.280333 104.12667 43.358997
19.267668 104.48367 43.337002
19.256001 104.83475 43.373001
19.244667 105.15933 43.358334
19.233332 105.50668 43.358997
19.203667 105.89683 43.343838
19.548 96.314499 43.585499
19.538666 96.58033 43.652332
19.528999 96.886002 43.585503
19.52125 97.225998 43.585503
19.507 97.499001 43.745998
19.51 97.505005 43.6255
19.499001 97.797333 43.654663
19.488333 98.102325 43.632
19.477333 98.383331 43.648998
19.467001 98.691338 43.628002
19.458334 98.996002 43.648666
19.445499 99.290749 43.609253
19.434668 99.617668 43.654003
19.425165 99.920006 43.635834
19.413 100.228 43.607002
19.402334 100.55401 43.65567
19.390999 100.87175 43.582748
19.381001 101.19733 43.639999
19.370998 101.51625 43.585999
19.359501 101.845 43.622002
19.347666 102.14333 43.628998
19.334 102.48067 43.631336
19.324501 102.806 43.588249
19.314001 103.12034 43.640003
19.302 103.464 43.630665
19.290001 103.81125 43.608749
19.281 104.14133 43.623333
19.261665 104.46766 43.618999
19.268 104.506 43.689999
19.247 104.803 43.730999
19.257 104.8515 43.619499
19.2365 105.12975 43.651249
19.219 105.44132 43.651333
19.199999 105.62167 43.692001
19.195665 105.87034 43.667332
19.179798 106.1324 43.633198
19.547335 96.325325 43.865002
19.536751 96.580246 43.878502
19.5285 96.897163 43.865833
19.518333 97.222328 43.852001
19.506001 97.496002 43.828999
19.5065 97.503494 43.957001
19.496 97.795006 43.901997
19.486 98.100998 43.908001
19.47575 98.387001 43.880001
19.465332 98.694672 43.878998
19.454498 98.989998 43.896999
19.445 99.124001 43.945499
19.446333 99.306999 43.846333
19.43 99.603668 43.899998
19.400999 99.904755 43.9505
19.406 100.20575 43.87125
19.363001 100.37 43.956497
19.37075 100.59325 43.9165
19.372749 100.88625 43.879753
19.344666 101.14718 43.914669
19.334999 101.3495 43.919502
19.33725 101.55174 43.87875
19.3311 101.8546 43.867802
19.303749 102.1315 43.894001
19.298 102.39825 43.8755
19.228001 102.685 43.971001
19.285667 102.61733 43.870667
19.247 102.779 43.924
19.289331 102.87933 43.829666
19.230999 103.10433 43.908337
19.306 103.089 43.799
19.200001 103.35249 43.952499
19.284 103.3765 43.807999
19.199333 103.59833 43.945667
19.2605 103.66701 43.827499
19.207001 103.86775 43.875999
19.287001 103.804 43.757
19.198 104.14166 43.884998
19.264999 104.064 43.764
19.181999 104.36 43.869251
19.173401 104.64819 43.874603
19.165335 104.89283 43.851665
19.160334 105.13166 43.813335
19.117001 105.3235 43.9305
19.11525 105.61088 43.888123
19.1115 105.8975 43.832001
19.108999 106.09367 43.848331
19.069666 106.30866 43.902332
19.478666 96.110664 44.214664
19.542749 96.135002 44.098751
19.4865 96.352501 44.164497
19.532501 96.415497 44.078499
19.468834 96.622337 44.180164
19.537001 96.587997 44.067001
19.445999 96.884338 44.195667
19.5205 96.866501 44.070499
19.450001 97.126671 44.180332
19.512501 97.202499 44.0495
19.450602 97.376503 44.1395
19.462 97.635658 44.078999
19.410498 97.875801 44.152302
19.431749 98.093246 44.084248
19.3969 98.364899 44.1343
19.3962 98.639206 44.098
19.374125 98.86837 44.128376
19.362749 99.088623 44.118874
19.3685 99.391998 44.079498
19.3354 99.636398 44.101799
19.320002 99.907326 44.095669
19.3155 100.136 44.085751
19.290249 100.38275 44.108498
19.268 100.64233 44.161335
19.272499 100.91317 44.124004
19.279499 101.0725 44.053497
19.2465 101.28951 44.147999
19.276001 101.4365 44.0415
19.232 101.57034 44.14867
19.261999 101.72 44.042
19.218332 101.90399 44.151337
19.210001 102.14175 44.157501
19.197001 102.34875 44.132999
19.188499 102.58701 44.124496
19.184 102.8665 44.10725
19.1625 103.16499 44.131248
19.1255 103.3465 44.192497
19.140665 103.56634 44.130001
19.1285 103.88425 44.123001
19.118 104.134 44.143002
19.106249 104.358 44.140751
19.090998 104.64333 44.148335
19.105499 104.85201 44.087997
19.073 105.09634 44.139999
18.983999 105.433 44.243
19.06925 105.3735 44.128006
18.948 105.661 44.249001
19.046751 105.66475 44.147751
18.949001 105.8605 44.240997
19.0725 105.90649 44.049
19.029749 106.10249 44.124252
19.4345 96.108337 44.354336
19.405666 96.327843 44.431335
19.400501 96.673508 44.388252
19.37575 96.88575 44.42075
19.368 97.073334 44.397003
19.365334 97.293999 44.391998
19.3598 97.601097 44.353001
19.328751 97.860748 44.397499
19.329002 98.127625 44.379501
19.307167 98.396004 44.389832
19.3165 98.68 44.3615
19.279665 98.874001 44.415333
19.282667 99.119331 44.386669
19.2435 99.4105 44.446499
19.286835 99.377159 44.320332
19.234501 99.738495 44.437
19.2925 99.652496 44.301003
19.211 99.995003 44.487999
19.271 99.916664 44.304668
19.190624 100.12213 44.449749
19.252001 100.198 44.324001
19.198 100.38875 44.409504
19.268 100.278 44.273998
19.1674 100.6652 44.442604
19.253 100.568 44.297001
19.170124 100.84763 44.381626
19.159428 101.14264 44.381218
19.148001 101.3814 44.369797
19.125288 101.64385 44.383144
19.091999 102.59925 44.370251
18.973 102.967 44.418999
19.067335 102.859 44.378834
18.999001 103.103 44.394001
19.0795 103.12025 44.33725
18.9795 103.40649 44.394001
19.085501 103.351 44.326
18.961 103.689 44.387001
19.069666 103.61399 44.325001
18.981001 103.796 44.348
19.043499 103.841 44.320999
18.956501 104.0635 44.362503
19.068501 104.067 44.287003
18.9645 104.314 44.334503
19.048 104.35049 44.295502
18.953001 104.589 44.323334
19.056999 104.598 44.285
18.948999 104.829 44.306
19.033001 104.8885 44.27
18.941332 105.064 44.297668
19.024 105.234 44.257999
18.931499 105.36349 44.299999
18.921 105.515 44.272999
18.898001 105.777 44.289001
19.233 96.121002 44.724503
19.336 96.122002 44.634663
19.215 96.456001 44.702
19.3109 96.380295 44.6409
19.222666 96.666168 44.684498
19.330334 96.671669 44.612335
19.296249 96.935005 44.630249
19.213001 97.041748 44.666252
19.302999 97.139999 44.595749
19.191 97.369003 44.655998
19.292749 97.346252 44.58075
19.189667 97.589661 44.640667
19.290335 97.621338 44.585331
19.201334 97.880005 44.615997
19.297501 97.894997 44.563499
19.180334 98.135994 44.606998
19.281 98.155502 44.567497
19.202002 98.369331 44.576336
19.271 98.459999 44.556
19.181 98.617332 44.580334
19.289 98.547997 44.514999
19.186335 98.881325 44.560001
19.257 98.768997 44.536999
19.15925 99.085999 44.556252
19.254 99.100998 44.519001
19.169001 99.350502 44.536667
19.162333 99.624329 44.525665
19.1325 99.872749 44.523499
19.0865 100.105 44.557999
19.076 100.428 44.5355
19.059 100.697 44.532001
