# .PCD v0.7 - Point Cloud Data file format
VERSION 0.7
FIELDS x y z
SIZE 4 4 4
TYPE F F F
COUNT 1 1 1
WIDTH 117
HEIGHT 1
VIEWPOINT -18.2321 96.2205 -1.35163 -0.354149 -0.00701479 0.0211809 0.934923
POINTS 117
DATA ascii
104.1875 -38.077499 14.1165
104.284 -38.153999 14.247
104.2135 -37.904751 14.120375
104.253 -37.981998 14.164
104.42066 -36.855667 14.090667
104.18975 -38.327999 14.37075
104.22867 -38.105331 14.37
104.22045 -37.903446 14.378001
104.29659 -37.596199 14.3532
104.33826 -37.349751 14.345501
104.30842 -37.105583 14.35275
104.41425 -36.849876 14.348001
104.44134 -36.617001 14.321667
104.19088 -38.295876 14.613251
104.17517 -37.868 14.640667
104.25933 -37.866837 14.618167
104.3085 -37.625504 14.5605
104.35101 -37.3335 14.604626
104.31575 -37.076 14.6285
104.40239 -36.842598 14.6422
104.4244 -36.637001 14.6272
104.17084 -38.3615 14.839334
104.20567 -38.124332 14.833
104.19267 -37.901669 14.865334
104.271 -37.813 14.868
104.239 -37.640999 14.856
104.28875 -37.63525 14.8275
104.32534 -37.371334 14.856999
104.35362 -37.097752 14.869499
104.389 -36.829002 14.844999
104.44766 -36.617336 14.887001
104.17686 -38.351002 15.133571
104.2175 -38.127502 15.104
104.1815 -37.896999 15.086833
104.254 -37.892502 15.105499
104.27267 -37.593334 15.100667
104.30325 -37.396252 15.16
104.236 -37.139999 15.229
104.31512 -37.109612 15.1385
104.355 -36.938999 15.017
104.42937 -36.637749 15.125
104.1655 -38.316002 15.3725
104.2065 -38.080002 15.3595
104.18792 -37.912418 15.350001
104.267 -37.73 15.338
104.305 -37.417 15.416
104.245 -37.142998 15.347
104.321 -37.114498 15.41675
104.405 -36.874001 15.3645
104.427 -36.634998 15.431
104.14025 -38.345501 15.572999
104.1785 -38.069 15.73
104.251 -38.138 15.503
104.16219 -37.894203 15.632601
104.236 -37.717999 15.646
104.27334 -37.592838 15.6415
104.316 -37.370399 15.6358
104.242 -37.140999 15.542
104.30283 -37.124332 15.643666
104.36533 -36.859333 15.555667
104.4164 -36.631401 15.608999
104.11825 -38.397377 15.874125
104.166 -38.107002 15.916
104.12937 -37.910751 15.860126
104.22767 -37.631168 15.868167
104.303 -37.414001 15.823
104.3029 -37.1833 15.869699
104.40067 -36.870667 15.824333
104.109 -38.374249 16.10025
104.15011 -38.100201 16.104198
104.14201 -37.899101 16.125101
104.23187 -37.653873 16.128374
104.302 -37.570999 16.211
104.2695 -37.442497 16.056
104.218 -37.219002 16.195499
104.3035 -37.133198 16.0611
104.3875 -36.946999 16.164001
104.09784 -38.357502 16.366835
104.1255 -38.089001 16.393002
104.14667 -37.913666 16.345667
104.22167 -37.65633 16.380001
104.27451 -37.3815 16.396999
104.2315 -37.223499 16.414749
104.32101 -37.036999 16.368666
104.364 -36.896999 16.429501
104.06634 -38.396999 16.642
104.07776 -38.085499 16.661833
104.1507 -37.9086 16.561501
104.21899 -37.652668 16.592667
104.19666 -37.278 16.641668
104.258 -37.437 16.527
104.29875 -37.144501 16.6485
104.3675 -36.883167 16.625999
104.06875 -38.398125 16.849125
103.99651 -38.126499 16.827
104.08549 -38.106697 16.884899
104.17825 -37.903999 16.8955
104.2196 -37.590599 16.877399
104.20859 -37.342751 16.891582
104.30063 -37.132378 16.880749
104.3558 -36.851601 16.863201
104.042 -38.544998 17.035
104.02799 -38.367332 17.148001
103.97375 -38.217499 17.08725
104.06725 -38.130001 17.119499
104.15734 -37.849667 17.105333
104.229 -37.629002 17.224001
104.1865 -37.354164 17.124998
104.256 -37.311001 17.208
104.32499 -37.140667 17.187668
104.337 -36.844498 17.0495
103.96325 -38.29425 17.3675
104.005 -38.452 17.257
104.06567 -38.147667 17.308668
104.12849 -37.903503 17.303001
104.1985 -37.613998 17.341
104.17475 -37.403999 17.285999
