# .PCD v0.7 - Point Cloud Data file format
VERSION 0.7
FIELDS x y z
SIZE 4 4 4
TYPE F F F
COUNT 1 1 1
WIDTH 81
HEIGHT 1
VIEWPOINT -18.2321 96.2205 -1.35163 -0.354149 -0.00701479 0.0211809 0.934923
POINTS 81
DATA ascii
48.923199 -82.706696 3.4168
49.118164 -82.630058 3.3973892
49.380199 -82.583031 3.3837779
49.550877 -82.533752 3.3930001
48.671936 -82.777809 3.6226876
48.788834 -82.766838 3.6721668
48.908199 -82.720444 3.6083
49.154228 -82.619812 3.6362917
49.396137 -82.576385 3.6274719
49.5755 -82.525436 3.63625
49.643002 -82.490997 3.543
48.644001 -82.778671 3.8523333
48.736126 -82.74263 3.8891251
48.917564 -82.706879 3.8649998
49.150455 -82.611694 3.8808572
49.388802 -82.576355 3.8716998
49.505997 -82.520004 3.8724999
49.493999 -82.499001 3.9719999
49.590836 -82.49366 3.9171667
48.675377 -82.783371 4.1015
48.737999 -82.745255 4.1420002
48.894451 -82.708397 4.1191664
49.113331 -82.609474 4.1176944
49.387653 -82.547096 4.1316948
49.536163 -82.509003 4.1483335
49.608669 -82.477829 4.1609998
48.635002 -82.763504 4.2535
48.660378 -82.739998 4.4006252
48.867146 -82.685051 4.3788095
49.135952 -82.594963 4.3771
49.363567 -82.556175 4.3755355
49.475002 -82.489662 4.3985
49.5737 -82.455795 4.3729005
48.68206 -82.713249 4.6477499
48.86314 -82.660011 4.6321907
49.0984 -82.594872 4.6241875
49.372997 -82.529503 4.6158333
49.486252 -82.487 4.59375
49.581249 -82.45462 4.6038752
48.870251 -82.64473 4.8727083
49.121323 -82.579468 4.8563242
49.330872 -82.525131 4.8887501
49.428333 -82.466499 4.8493333
49.57325 -82.440376 4.8050003
48.886734 -82.665062 5.0942664
49.07975 -82.577065 5.1358123
49.316399 -82.520302 5.1379004
49.395752 -82.466995 5.0999999
48.891918 -82.649361 5.3491669
49.073463 -82.570793 5.3814645
49.3036 -82.524307 5.3733001
49.397335 -82.469505 5.3518333
48.865925 -82.626625 5.6145749
49.122753 -82.554207 5.65025
49.398499 -82.457603 5.6269002
49.511166 -82.403503 5.6533332
48.689434 -82.662399 5.8687997
48.905865 -82.617737 5.9031668
49.098835 -82.54364 5.867167
49.303001 -82.50975 5.888
49.439598 -82.434448 5.8608003
49.562752 -82.403 5.9003749
48.704376 -82.65654 6.1214585
48.887959 -82.606728 6.116333
49.143635 -82.507103 6.127933
49.249001 -82.483002 6.0349998
49.363708 -82.444374 6.1315002
49.538372 -82.385452 6.1127501
48.676003 -82.635605 6.3582001
48.817917 -82.571327 6.33775
48.937 -82.489998 6.277
49.123299 -82.460999 6.3055
49.384426 -82.398857 6.3689761
49.544502 -82.389 6.4017501
48.688557 -82.64933 6.614222
48.765667 -82.591331 6.6183333
49.397003 -82.415878 6.6075001
48.670166 -82.62458 6.8547502
48.811249 -82.569374 6.8283749
49.152748 -82.527 6.8094997
49.187 -82.480499 6.8830004
