# .PCD v0.7 - Point Cloud Data file format
VERSION 0.7
FIELDS x y z
SIZE 4 4 4
TYPE F F F
COUNT 1 1 1
WIDTH 111
HEIGHT 1
VIEWPOINT -18.2321 96.2205 -1.35163 -0.354149 -0.00701479 0.0211809 0.934923
POINTS 111
DATA ascii
102.522 -44.504002 12.979
101.64875 -44.405251 12.89575
102.1355 -44.4655 12.893
102.3775 -44.485001 12.9215
102.127 -44.504002 13.172
102.38617 -44.531834 13.132668
102.617 -44.544666 13.148999
101.60201 -44.446751 13.11725
101.83533 -44.465 13.137668
102.0835 -44.485001 13.048
101.586 -44.52 13.481
101.933 -44.507 13.4255
102.1865 -44.528999 13.2975
102.374 -44.568001 13.397
102.67267 -44.597668 13.393001
102.91933 -44.617336 13.365001
101.63225 -44.479752 13.345875
101.882 -44.485001 13.303
101.6414 -44.5448 13.632601
101.8905 -44.529999 13.6125
102.03551 -44.551498 13.6755
102.32651 -44.5895 13.6125
102.66067 -44.64967 13.629666
102.92751 -44.678497 13.6245
101.705 -44.491001 13.504
101.62349 -44.585499 13.8793
101.86234 -44.55917 13.853168
102.13 -44.591499 13.846
102.41034 -44.625 13.867999
102.741 -44.683998 13.8
101.44051 -44.538498 14.0515
101.57367 -44.655994 14.200665
101.87567 -44.618 14.178333
102.153 -44.601002 14.128
102.287 -44.66 14.223
102.555 -44.687 14.177
101.432 -44.451 14.01
101.628 -44.456001 14.044
101.87 -44.478001 14.009
101.39633 -44.687668 14.379001
101.61025 -44.7015 14.38825
101.84384 -44.672665 14.382833
102.03833 -44.63467 14.337001
102.2805 -44.655746 14.401
102.60099 -44.707001 14.342999
102.7115 -44.755001 14.636
101.45583 -44.712666 14.636333
101.68801 -44.734333 14.656334
101.9072 -44.708 14.6136
102.09225 -44.677498 14.620251
102.34066 -44.681335 14.626667
102.605 -44.709 14.502
101.938 -44.753998 14.911
101.435 -44.702499 14.896
101.67425 -44.728001 14.91025
101.916 -44.744999 14.788
102.1532 -44.715599 14.866
102.41599 -44.713333 14.875667
101.93525 -44.752502 15.087749
101.43325 -44.701752 15.1125
101.66734 -44.723999 15.125999
102.11301 -44.746498 15.093
102.37241 -44.736084 15.142334
101.7395 -44.755001 15.333
101.97233 -44.76767 15.350334
102.14217 -44.758167 15.362332
101.45084 -44.7085 15.3455
101.729 -44.75 15.452
102.38588 -44.741375 15.393
101.97849 -44.769501 15.655999
102.146 -44.759251 15.59325
101.4225 -44.695499 15.6035
101.713 -44.742752 15.58625
102.245 -44.721001 15.555
102.414 -44.738667 15.613999
101.9505 -44.7565 15.882
101.4055 -44.687 15.759
101.66283 -44.719498 15.848832
102.104 -44.740002 15.88425
102.36216 -44.729336 15.85575
101.586 -44.685001 16.1005
101.89149 -44.708752 16.150249
102.11087 -44.701626 16.097374
102.38 -44.694 16.141333
101.59575 -44.644001 16.330999
101.86538 -44.675625 16.353624
102.12112 -44.643127 16.361624
102.33933 -44.645664 16.372
101.9095 -44.611252 16.690001
102.1318 -44.6008 16.625
102.40733 -44.61533 16.620001
101.853 -44.586502 16.839001
102.083 -44.561665 16.889
102.3135 -44.573334 16.856501
101.866 -44.522167 17.073
102.178 -44.514 17.059999
102.40975 -44.529251 17.189251
101.87733 -44.470337 17.172667
102.066 -44.4645 17.159
101.88712 -44.407749 17.39975
102.086 -44.43 17.358
102.2675 -44.466499 17.344
102.536 -44.495998 17.427999
101.88367 -44.355331 17.643333
102.09766 -44.392334 17.594
102.39899 -44.436001 17.645334
102.5 -44.48 17.503
101.87849 -44.295998 17.8335
102.173 -44.336746 17.904499
102.277 -44.382999 17.785
102.40967 -44.350666 18.112333
