# .PCD v0.7 - Point Cloud Data file format
VERSION 0.7
FIELDS x y z
SIZE 4 4 4
TYPE F F F
COUNT 1 1 1
WIDTH 194
HEIGHT 1
VIEWPOINT -18.2321 96.2205 -1.35163 -0.354149 -0.00701479 0.0211809 0.934923
POINTS 194
DATA ascii
-90.571999 -150.056 11.477
-91.384003 -149.509 11.37
-91.63475 -149.33224 11.37
-91.485001 -149.453 11.3225
-90.558998 -150.035 11.594
-90.816002 -149.8725 11.7095
-90.660004 -149.965 11.724
-91.278 -149.5715 11.6805
-91.109001 -149.64899 11.671499
-91.622757 -149.31349 11.67575
-91.363998 -149.47701 11.611
-91.780502 -149.215 11.6695
-89.779999 -150.899 11.96
-89.608002 -150.9505 11.955999
-90.559998 -150.03601 11.906
-90.386749 -150.12274 11.89575
-90.858749 -149.827 11.86075
-90.671997 -149.98599 11.85
-91.264 -149.5495 11.9225
-91.122658 -149.636 11.881333
-90.954002 -149.746 11.951
-91.612747 -149.29825 11.92125
-91.420197 -149.4362 11.8906
-89.649658 -151.06667 12.171666
-89.832001 -150.86499 12.145
-89.704002 -150.981 12.079
-90.559494 -150.03549 12.15
-90.405334 -150.11299 12.165333
-90.795998 -149.87733 12.116
-90.653 -149.95599 12.216
-91.255997 -149.537 12.227
-91.139793 -149.6302 12.103
-91.594337 -149.30833 12.147
-91.40625 -149.43625 12.172
-91.826195 -149.1438 12.1366
-91.653999 -149.245 12.219
-90.621002 -150.02051 12.4
-90.462997 -150.12801 12.457
-90.802994 -149.85201 12.382
-90.666 -149.97701 12.462
-91.168999 -149.58621 12.3868
-91.610001 -149.29425 12.41125
-91.400002 -149.42751 12.415501
-91.833336 -149.14034 12.441334
-90.550003 -150.022 12.58
-90.393997 -150.136 12.575
-90.226997 -150.20799 12.634
-90.842796 -149.8484 12.6166
-90.648003 -149.948 12.584
-91.251999 -149.53149 12.657499
-91.091331 -149.65868 12.611667
-91.5495 -149.317 12.6635
-91.398506 -149.42575 12.6615
-91.82267 -149.12366 12.644
-91.677338 -149.20667 12.667999
-89.584 -151.04601 12.826
-89.702003 -150.98 12.818
-90.544998 -150.01401 12.948
-90.315002 -150.129 12.813
-90.209 -150.17799 12.756
-90.848999 -149.819 12.939
-90.649002 -149.95001 12.8925
-91.255997 -149.53799 12.845
-91.146339 -149.59599 12.920334
-90.946503 -149.735 12.8735
-91.544998 -149.30951 12.907499
-91.397995 -149.42525 12.908251
-91.878998 -149.0948 12.9148
-91.679344 -149.20967 12.874667
-89.829498 -150.74049 13.126499
-90.219498 -150.43451 13.1625
-90.37175 -150.101 13.124
-90.206497 -150.17551 13.186
-90.826996 -149.7825 13.118
-90.630333 -149.91866 13.126
-91.252998 -149.534 13.089
-91.0895 -149.621 13.083
-90.934494 -149.716 13.1185
-91.544998 -149.311 13.1535
-91.395004 -149.42101 13.15275
-91.899246 -149.05701 13.149
-91.696251 -149.19875 13.13925
-89.815002 -150.715 13.368999
-90.123001 -150.274 13.333
-90.360497 -150.0825 13.368501
-90.166328 -150.188 13.437333
-90.821999 -149.776 13.364
-90.623833 -149.90851 13.370999
-91.132996 -149.57518 13.350001
-90.929001 -149.7075 13.363501
-91.535507 -149.29601 13.3985
-91.387497 -149.4095 13.397751
-91.896759 -149.05399 13.39475
-91.691254 -149.19174 13.384251
-89.836998 -150.754 13.559
-90.138 -150.548 13.747
-90.362503 -150.0865 13.614
-90.120331 -150.19133 13.627
-90.817001 -149.76801 13.6095
-90.593254 -149.9185 13.585751
-91.075249 -149.59976 13.572249
-90.922501 -149.6985 13.607
-91.539001 -149.302 13.643499
-91.378746 -149.39549 13.6415
-91.225502 -149.49149 13.639999
-91.894997 -149.05125 13.63975
-91.688995 -149.18849 13.630751
-90.037498 -150.6095 13.9285
-89.888664 -150.66766 13.929001
-90.098999 -150.4825 13.9255
-90.352501 -150.07025 13.858
-90.143494 -150.19225 13.9015
-90.817993 -149.76999 13.854
-90.602203 -149.92178 13.853399
-91.069748 -149.59074 13.88025
-90.917496 -149.69101 13.8525
-91.528503 -149.28601 13.8905
-91.372749 -149.38626 13.886499
-91.220497 -149.485 13.883499
-91.887749 -149.0405 13.884251
-91.677246 -149.16974 13.8735
-90.085999 -150.69099 14.123
-89.968002 -150.716 14.125
-90.041 -150.38699 14.102
-89.987 -150.29601 14.217
-90.341751 -150.05325 14.1045
-90.135246 -150.179 14.146
-90.806 -149.752 14.039
-90.657501 -149.84775 14.103499
-90.499496 -149.94299 14.1085
-91.061005 -149.57724 14.1245
-90.872673 -149.69934 14.119667
-91.522499 -149.2775 14.134501
-91.368248 -149.38 14.13375
-91.2155 -149.47701 14.129
-91.864006 -149.03934 14.115001
-91.671509 -149.16174 14.1185
-91.927002 -148.996 14.177
-89.966507 -150.263 14.3955
-90.342506 -150.05576 14.349001
-90.124001 -150.16075 14.3895
-90.628998 -149.8605 14.319
-90.495003 -149.936 14.415
-91.065994 -149.58575 14.370251
-90.833 -149.71567 14.322666
-91.512001 -149.26151 14.379
-91.364502 -149.37399 14.377251
-91.207001 -149.464 14.313
-92.158997 -149.13901 14.337999
-91.820999 -149.04349 14.389
-91.668503 -149.157 14.3645
-91.919998 -148.9845 14.358
-89.964996 -150.261 14.583
-90.281998 -150.07851 14.591
-90.129501 -150.1705 14.63825
-89.956001 -150.24699 14.701
-90.64325 -149.82574 14.5935
-90.436005 -149.96324 14.598
-91.074493 -149.54501 14.55775
-90.850746 -149.70499 14.59
-91.508499 -149.256 14.6255
-91.357002 -149.36325 14.62275
-91.208 -149.467 14.618999
-91.816498 -149.03699 14.635
-91.662247 -149.14751 14.60875
-92.040001 -148.948 14.688499
-91.916504 -148.98 14.6045
-89.981003 -150.51801 14.845
-89.961998 -150.37201 14.896999
-90.303001 -150.03267 14.858666
-90.118996 -150.15324 14.8815
-89.947998 -150.23399 14.949
-90.640747 -149.82275 14.84
-90.433998 -149.961 14.7815
-91.094666 -149.52498 14.869667
-90.894325 -149.65601 14.861167
-91.508003 -149.256 14.807
-91.349251 -149.35074 14.86825
-91.196999 -149.44949 14.8645
-91.814499 -149.034 14.8815
-91.656502 -149.13925 14.85475
-91.499001 -149.242 14.931
-92.013 -148.90549 14.931
-91.913498 -148.97549 14.85
-90.263 -150.0495 15.079
-90.110252 -150.13924 15.127501
-90.444336 -149.93767 15.069333
-91.052498 -149.56549 15.107
-91.336746 -149.33075 15.111501
-91.194504 -149.444 15.1105
-91.805 -149.02 15.062
-91.618797 -149.15019 15.091199
-91.488998 -149.226 15.173
-91.904999 -148.96201 15.094999
