# .PCD v0.7 - Point Cloud Data file format
VERSION 0.7
FIELDS x y z
SIZE 4 4 4
TYPE F F F
COUNT 1 1 1
WIDTH 142
HEIGHT 1
VIEWPOINT -18.2321 96.2205 -1.35163 -0.354149 -0.00701479 0.0211809 0.934923
POINTS 142
DATA ascii
27.83675 65.907501 1.60325
27.732 65.706253 1.94925
27.7645 65.561005 1.8740001
27.8235 65.639 2.148
27.732332 65.856995 2.0440001
27.811501 65.894501 2.1170001
27.717001 66.162331 2.2266667
27.760166 66.08017 2.1231668
27.784 66.344002 2.1100001
27.704203 66.381004 2.3614001
27.6845 66.568001 2.464
27.84025 65.427246 2.6487498
27.825876 65.657997 2.6785002
27.817251 65.908875 2.6916251
27.799601 66.144203 2.6529999
27.78775 66.353249 2.657125
27.677999 66.692001 2.536
27.775 66.590752 2.6177499
27.70425 66.86425 2.629375
27.7665 66.835129 2.6786251
27.739222 67.127388 2.5906112
27.731001 67.341751 2.6096249
27.851 65.420166 2.8623333
27.841002 65.580498 2.8635836
27.830248 65.877747 2.8881664
27.812643 66.152855 2.8832858
27.798502 66.369858 2.8567855
27.786085 66.617836 2.8582497
27.76825 66.863091 2.8694999
27.715918 67.165413 2.846
27.758875 67.045242 2.855875
27.688833 67.340172 2.9017503
27.817062 65.141495 3.1121249
27.852501 65.423996 3.1105001
27.841751 65.582886 3.1127501
27.828556 65.874443 3.1379447
27.810902 66.146103 3.1444001
27.7987 66.367203 3.1194999
27.7805 66.604507 3.1101251
27.761189 66.863838 3.1287618
27.741377 67.207748 3.1556251
27.752377 67.095375 3.084125
27.704834 67.408333 3.0780001
27.635624 67.630371 3.1057498
27.627333 67.858665 3.2409999
27.830082 65.13633 3.4219999
27.853333 65.427002 3.3596668
27.840582 65.581337 3.3619168
27.825918 65.868675 3.3878334
27.8085 66.15358 3.3710001
27.795248 66.372337 3.37675
27.775833 66.593666 3.3616669
27.760799 66.8368 3.3541
27.743332 67.152672 3.3711669
27.75725 67.01075 3.3785
27.739624 67.329247 3.3860002
27.719 67.712997 3.471
27.706501 67.891998 3.49
27.853001 67.847504 3.471
27.864428 65.128693 3.6427128
27.843 65.402496 3.619
27.835999 65.610397 3.6338
27.822939 65.877686 3.6261876
28.027 65.834999 3.556
27.806202 66.161598 3.6173999
27.787399 66.354149 3.6593499
27.768751 66.642754 3.6035831
27.760269 66.89875 3.6556458
27.747501 67.115997 3.5439999
27.753166 67.086662 3.6501665
27.738499 67.325211 3.6229999
27.719999 67.655502 3.516
27.609749 67.897751 3.6615002
27.646751 68.160751 3.5783749
27.827375 65.166748 3.8815
27.854334 65.429497 3.8571665
27.833626 65.61525 3.8640623
27.818876 65.914871 3.89275
27.801626 66.138 3.8751879
27.785749 66.373253 3.8690834
27.771399 66.597305 3.8466003
27.748501 66.990501 3.8340001
27.7635 66.830132 3.886375
27.743835 67.202667 3.9111664
27.752251 67.063499 3.89325
27.7005 67.379333 3.9073334
27.645889 67.613777 3.8594444
27.622501 67.754501 3.7610002
27.641499 68.216003 3.8905001
27.636999 68.339996 3.8895001
27.830814 65.175255 4.1053123
27.85075 65.422249 4.1059999
27.829666 65.622917 4.1312499
27.817286 65.885284 4.1259999
27.799213 66.142288 4.1233573
27.7833 66.332298 4.099
27.77475 66.593376 4.1192498
27.757999 66.866814 4.1294374
27.729334 67.187828 4.13625
27.7535 67.002502 4.165
27.68067 67.357338 4.0699162
27.709999 67.693001 4.0339999
27.703499 67.886002 4.04175
27.66828 68.17556 4.0633893
27.829624 65.172874 4.3780003
27.804625 65.315247 4.3726249
27.833858 65.595284 4.3537145
27.816 65.872398 4.3996997
27.799749 66.135162 4.3573337
27.7854 66.364601 4.3720002
27.775084 66.594414 4.3590832
27.70575 66.919998 4.3769999
27.761875 66.827621 4.39325
27.721264 67.122971 4.3658004
27.755001 67.137001 4.257
27.729801 67.341599 4.3771
27.805418 65.338829 4.6256661
27.82025 65.626129 4.5728335
27.801998 65.887894 4.5723
27.784668 66.12117 4.566
27.706667 66.453667 4.7236667
27.768166 66.377998 4.5630002
27.704535 66.632401 4.6007333
27.764 66.569 4.53475
27.7335 66.955498 4.5419998
27.7225 67.130005 4.5285001
27.709499 67.357498 4.5155001
27.698 67.542999 4.5279999
27.705667 66.318672 4.8250003
27.716 65.557007 5.7379999
27.846001 65.654999 5.5890002
27.845699 65.895302 5.5985999
27.811167 66.165993 5.5929999
27.712667 65.687332 5.8209996
27.699333 65.879333 5.9366665
27.703667 66.10099 6.0809999
27.691 66.334503 6.2205
27.75 66.338997 6.098
27.757666 66.624001 6.1069999
27.681 66.442001 6.2804999
27.66633 66.629333 6.386167
27.653 66.768494 6.4569998
