# .PCD v0.7 - Point Cloud Data file format
VERSION 0.7
FIELDS x y z
SIZE 4 4 4
TYPE F F F
COUNT 1 1 1
WIDTH 82
HEIGHT 1
VIEWPOINT -18.2321 96.2205 -1.35163 -0.354149 -0.00701479 0.0211809 0.934923
POINTS 82
DATA ascii
-50.317444 1.7378889 6.1632781
-50.194 1.699 6.1160002
-51.076 1.9445 6.0910001
-50.632832 1.8197501 6.1184168
-50.4995 1.8150001 6.1724997
-51.628502 2.217 6.1945
-51.404335 2.1370001 6.1933336
-51.178337 2.0569999 6.1493335
-51.948002 2.3399999 6.197
-50.300499 1.737 6.3274999
-50.183998 1.733 6.3660002
-50.940498 1.975 6.3179998
-50.643139 1.9143096 6.3204994
-50.445251 1.83025 6.3097501
-50.132893 1.9134445 6.3608336
-51.401001 2.172375 6.30725
-51.133671 2.1254666 6.3172669
-50.897663 2.1393335 6.3369999
-50.613503 2.1389 6.3491006
-50.399002 2.0939999 6.3505001
-50.156002 2.09325 6.3522501
-49.905502 2.0825 6.3559999
-51.892666 2.3373334 6.2948337
-51.662998 2.257 6.323
-51.491001 2.319 6.3249998
-51.222 2.3069999 6.3280001
-50.951 2.2950001 6.3309999
-50.217999 2.2609999 6.3470001
-49.953999 2.25 6.349
-52.764999 2.677 6.2979999
-52.666 2.595 6.2880001
-52.493 2.6245 6.303
-52.215 2.6100001 6.3080001
-51.896332 2.6433334 6.3059998
-51.603668 2.6283333 6.3070006
-51.306164 2.6358333 6.3093338
-51.032501 2.6585 6.3115001
-50.766998 2.6445 6.3150001
-50.620499 2.6719999 6.3170004
-50.398602 2.6680002 6.3280997
-50.073997 2.5905001 6.3357496
-49.986 2.7090001 6.329
-52.800999 2.9360001 6.2849998
-52.585503 2.8875 6.2909999
-52.4245 2.9165001 6.29
-52.156666 2.9006665 6.2903333
-51.871002 2.8850002 6.2933335
-51.626503 2.908 6.2919998
-51.403 2.8586667 6.2969995
-51.128998 2.9143333 6.2983336
-50.904751 2.8132501 6.3062501
-50.578999 2.8949997 6.3106666
-50.337337 2.9103336 6.321167
-50.137753 2.8752499 6.3289995
-52.750999 3.0090001 6.2810001
-52.638668 3.148 6.2783332
-52.293667 3.1656666 6.277
-52.0415 3.1690001 6.2779999
-51.987999 3.128 6.2799997
-51.692829 3.1285 6.278667
-51.445751 3.07725 6.2869997
-51.187668 3.1700001 6.287333
-50.897625 3.1159999 6.2958751
-50.679501 3.174 6.2979999
-50.460251 3.1069999 6.3052502
-50.1325 3.0780001 6.3176246
-49.991001 3.165 6.3179998
-52.567001 3.257 6.2729998
-52.333 3.4590001 6.2620001
-52.056 3.4400001 6.2659998
-51.82 3.4990001 6.2670002
-51.541 3.4059999 6.277
-51.133499 3.4155002 6.2785001
-50.995998 3.3699999 6.2820001
-50.714996 3.4045 6.2855
-50.396667 3.3656666 6.2926669
-50.141499 3.4088333 6.3109994
-52.113003 3.6056669 6.2600002
-51.871246 3.5857501 6.3022499
-51.556999 3.7 6.2649999
-51.130001 3.563 6.2709999
-50.92775 3.6022501 6.2709999
