# .PCD v0.7 - Point Cloud Data file format
VERSION 0.7
FIELDS x y z
SIZE 4 4 4
TYPE F F F
COUNT 1 1 1
WIDTH 62
HEIGHT 1
VIEWPOINT -18.2321 96.2205 -1.35163 -0.354149 -0.00701479 0.0211809 0.934923
POINTS 62
DATA ascii
28.296946 -11.793556 11.640529
28.234001 -11.72025 11.74
28.472 -13.277167 11.986166
28.621576 -13.310443 11.991624
28.847857 -13.34596 11.99515
29.053257 -13.298458 11.994759
27.906599 -13.0199 11.9691
28.147167 -13.066401 11.974316
28.359104 -13.14318 11.977839
28.620287 -13.11365 11.979408
28.865913 -13.131618 11.983825
29.146402 -13.119699 11.988698
29.363205 -13.065852 11.991166
27.643335 -12.806192 11.975077
27.880888 -12.864802 11.962949
28.133957 -12.861739 11.96256
28.395882 -12.903152 11.967284
28.645077 -12.863331 11.96792
28.889627 -12.870234 11.973192
29.133606 -12.886838 11.9791
29.366999 -12.872268 11.984855
27.624685 -12.616035 11.954621
27.870743 -12.609546 11.95088
28.124979 -12.610312 11.949766
28.365061 -12.651919 11.953761
28.610149 -12.626828 11.958206
28.868404 -12.622384 11.964845
29.104937 -12.614368 11.907434
29.400513 -12.595161 11.96081
27.865702 -12.370038 11.938777
28.145397 -12.380313 11.940143
28.401377 -12.352714 11.944224
28.637136 -12.353885 11.949556
28.868191 -12.395123 11.960597
29.115625 -12.445146 11.966458
27.645988 -12.13821 11.927165
27.909216 -12.129027 11.926901
28.145555 -12.138466 11.931667
28.389198 -12.121395 11.935913
28.57925 -12.182125 11.943375
28.868999 -12.1265 11.947001
27.361916 -11.866079 11.914013
27.619064 -11.855024 11.914731
27.86524 -11.923582 11.919342
28.134619 -11.860537 11.921785
28.337572 -11.850429 11.895392
26.864162 -11.616357 11.90043
27.106518 -11.62476 11.899902
27.319473 -11.66594 11.903837
27.645313 -11.51775 11.900438
27.869646 -11.639271 11.908421
28.146011 -11.700888 11.897325
26.848516 -11.455554 11.892853
27.137466 -11.344734 11.8884
26.642668 -11.125416 11.842709
26.891874 -11.205125 11.874437
27.041874 -11.216125 11.8805
27.5825 -12.8355 12.007625
27.774666 -12.943001 12.005667
29.426001 -12.948 12.002
27.579498 -12.746 12.0055
26.788 -11.486 12.135
