# .PCD v0.7 - Point Cloud Data file format
VERSION 0.7
FIELDS x y z
SIZE 4 4 4
TYPE F F F
COUNT 1 1 1
WIDTH 1552
HEIGHT 1
VIEWPOINT -18.2321 96.2205 -1.35163 -0.354149 -0.00701479 0.0211809 0.934923
POINTS 1552
DATA ascii
-44.867096 4.1059403 7.3780694
-44.787724 4.3129168 7.392889
-44.735443 4.4516892 7.4033847
-44.663113 4.6380548 7.3678031
-44.574402 4.8700018 7.346282
-44.648708 5.1527023 7.3816276
-44.562798 5.384459 7.3363304
-44.509312 5.5295391 7.359005
-44.47879 5.6126862 7.3960485
-44.394279 5.8410349 7.3872647
-44.305218 6.0841622 7.3673973
-44.204109 6.3718791 7.3896036
-44.109489 6.6372852 7.3839288
-44.027176 6.8699555 7.3515301
-43.988583 6.9750834 7.4005003
-43.945328 7.0899534 7.3703794
-43.886063 7.3744354 7.3523564
-44.010284 7.6765666 7.4011502
-43.968082 7.5910053 7.3951759
-44.08913 7.840704 7.3791132
-44.287193 8.2203836 7.3883915
-44.207561 8.0825825 7.3474374
-44.362022 8.3878174 7.3823166
-44.526527 8.6952343 7.4014826
-44.449692 8.581068 7.3687744
-44.705471 9.1022081 7.3794107
-44.806454 9.3499126 7.3542409
-45.084423 9.6817503 7.374083
-44.91362 9.5764284 7.3658128
-45.353333 9.7799997 7.4005833
-48.642239 -0.80664289 7.6181426
-48.343281 -0.6638667 7.6210814
-48.143669 -0.56766665 7.6209044
-48.010998 -0.5 7.6976666
-47.869583 -0.43518615 7.6404452
-47.644058 -0.32933334 7.6040502
-47.363358 -0.1981875 7.6466875
-47.124889 -0.089974999 7.6311045
-46.982555 -0.024333334 7.6570001
-46.842899 0.038791664 7.631937
-46.620361 0.1434762 7.640429
-46.463585 0.23415278 7.5998335
-46.396984 0.39631483 7.6056857
-46.312546 0.62735188 7.6060834
-46.266281 0.75138885 7.6103339
-45.725613 2.2470555 7.5969443
-45.64436 2.3802996 7.6285567
-45.475044 2.4872499 7.6053333
-45.415421 2.6463749 7.6365557
-45.319695 2.9080853 7.6179872
-45.28466 3.1102915 7.6836166
-45.21957 3.1757503 7.6015277
-45.147701 3.3845289 7.6238751
-45.082005 3.6425638 7.6572151
-44.896824 4.1091704 7.6226363
-44.821075 4.3332686 7.6513534
-44.734463 4.447125 7.5883365
-44.763615 4.5594721 7.6974726
-44.667606 4.6387744 7.6185923
-44.576084 4.873621 7.6297817
-44.604298 5.3631935 7.6110501
-44.543598 5.5900693 7.6507072
-44.476929 5.6111479 7.5434093
-44.506001 5.9899998 7.7329998
-44.424213 5.8498373 7.5851479
-44.346786 6.1319933 7.6009974
-44.283524 6.3837748 7.6523747
-44.214165 6.4123139 7.5499444
-44.158195 6.6100149 7.5764313
-44.074604 6.8429246 7.6303511
-43.992859 6.9773049 7.6488061
-43.943329 7.1139178 7.6408081
-43.887711 7.3881917 7.6336946
-44.014832 7.6896667 7.6003332
-43.971733 7.6026926 7.6358323
-44.122715 7.8412957 7.6270523
-44.522003 8.2129993 7.6459999
-44.35907 8.179431 7.5884995
-44.535664 8.4106112 7.6738892
-44.432545 8.3991966 7.5621119
-44.544415 8.6508331 7.5230002
-44.473671 8.515501 7.6046667
-44.662247 8.8710003 7.5115004
-45.151562 9.7172222 7.642889
-44.916721 9.5827818 7.6247354
-45.596001 9.8544998 7.5434999
-45.389915 9.8022499 7.6331668
-48.631012 -0.78921431 7.853631
-48.54467 -0.74266666 7.9589996
-48.400497 -0.67963058 7.8502278
-47.614124 -0.2912361 7.8385701
-47.37669 -0.16228572 7.8729997
-47.136002 -0.067937501 7.8536873
-46.994003 -0.025 7.816
-46.873753 0.035361111 7.8670831
-46.612499 0.1569 7.8519163
-46.416405 0.36267918 7.8465209
-45.479229 2.4908888 7.8576665
-45.417446 2.6613698 7.880373
-45.397293 2.901911 7.8578968
-44.758755 4.6104164 7.9081669
-44.685307 4.6491246 7.8556533
-44.589508 4.852385 7.9151683
-44.742435 5.3823128 7.7546873
-44.570137 5.5983338 7.8658004
-44.501999 6.0365 7.7845001
-44.488998 6.02 7.835
-44.27467 6.4074726 7.8585835
-44.064121 6.870501 7.8679562
-43.993999 6.9899998 7.8909998
-43.933846 7.1559825 7.8651066
-43.887604 7.3699908 7.884141
-44.009052 7.6855836 7.8439164
-43.959461 7.584878 7.8680778
-44.113701 7.8404913 7.8864193
-44.519627 8.4223757 7.9077082
-44.460552 8.4600248 7.8607306
-44.468891 8.5088892 7.8531113
-45.159412 9.7288065 7.8511391
-44.903061 9.5680418 7.8645415
-45.365837 9.8034582 7.871417
-48.674904 -0.79646671 8.1302013
-48.55875 -0.74316669 8.0917501
-46.877262 0.046433333 8.1269226
-46.630978 0.160625 8.1077919
-46.414848 0.38983336 8.1454878
-45.486504 2.4900002 8.1046677
-45.434479 2.635108 8.1440468
-45.389584 2.8666108 8.1341486
-44.766335 4.6104999 8.1037502
-44.671917 4.6612501 8.111084
-44.595146 4.8524556 8.1071777
-44.661907 5.0673919 8.1232347
-44.56073 5.5871878 8.1215906
-44.275719 6.4142852 8.1596203
-44.069267 6.8815408 8.1224108
-43.99958 6.9899998 8.0761662
-43.938541 7.1612086 8.135148
-43.888958 7.3942175 8.1179199
-44.004829 7.6860833 8.1047506
-43.959 7.592505 8.1439161
-44.110107 7.8397636 8.1291075
-44.530277 8.4312449 8.1374779
-44.466003 8.463541 8.109333
-44.508747 8.5702496 8.2445002
-44.465668 8.507 8.0968342
-45.060108 9.7065554 8.1431112
-44.905922 9.5846157 8.1260471
-45.293415 9.7870836 8.0779161
-48.684093 -0.78678674 8.3755474
-48.5508 -0.72490001 8.3486948
-48.333096 -0.60014021 8.3641624
-48.338486 -0.38920605 8.391058
-48.289703 -0.084683336 8.3713169
-46.846882 0.07392858 8.380929
-46.601597 0.18754999 8.3625164
-46.428181 0.37119603 8.3703518
-45.60957 2.4872999 8.357933
-45.439014 2.6386259 8.3914337
-45.400761 2.8825369 8.3846779
-44.895332 4.3464079 8.4541311
-44.781498 4.5977407 8.382906
-44.687172 4.6663332 8.3295422
-44.600132 4.8519349 8.3520079
-44.577614 5.6239305 8.3646364
-44.522003 5.8028336 8.4125004
-44.474937 5.882874 8.4073744
-44.408909 6.1084828 8.38972
-44.305138 6.3782911 8.3918772
-44.265999 6.586 8.4069996
-44.212963 6.6134586 8.3507919
-44.07045 6.8874645 8.3599224
-43.953495 7.1343155 8.3756084
-43.884762 7.357811 8.3505812
-44.001999 7.6849999 8.2740002
-43.957127 7.5981083 8.4026699
-44.127949 7.8694525 8.3567781
-44.293915 8.1250467 8.2845201
-44.238998 8.0139999 8.3249998
-44.522034 8.4460659 8.4138336
-44.411331 8.3703165 8.3066225
-44.562004 8.6923218 8.2588749
-44.467213 8.5209446 8.3436451
-45.012749 9.6952496 8.2860003
-44.90625 9.588747 8.3680201
-45.570999 9.882 8.2976656
-45.443001 9.8534164 8.4000835
-45.200665 9.7660007 8.3458748
-48.755611 -0.81233335 8.6438885
-48.672272 -0.76900005 8.6235342
-48.572224 -0.72044444 8.6436672
-48.345188 -0.58823216 8.6471319
-48.348171 -0.37381667 8.5870914
-48.262543 -0.062458333 8.635416
-48.213699 -0.0348 8.6032333
-46.855045 0.081879638 8.6177788
-46.589111 0.20591669 8.6147499
-46.430641 0.38054502 8.6288748
-45.697998 2.5 8.6043749
-45.444935 2.6385679 8.6399574
-44.896 4.382 8.5019999
-44.819168 4.6174583 8.6172085
-44.677998 4.6753335 8.648778
-44.606129 4.8589516 8.6444836
-44.780888 5.2264447 8.6590567
-44.648556 5.077311 8.6095076
-44.553116 5.6616006 8.6350403
-44.519222 5.8764443 8.567112
-44.470211 5.8952169 8.6141663
-44.409573 6.0990415 8.6025133
-44.069153 6.9044991 8.6304188
-44.006001 7.0190001 8.6789999
-43.964157 7.117372 8.6153383
-43.88858 7.3524675 8.6173611
-44.024799 7.7472 8.7476997
-43.952648 7.596241 8.649518
-44.097786 7.8477669 8.6350975
-44.533585 8.4497089 8.6056252
-44.487995 8.4775553 8.6432228
-44.462902 8.5190153 8.6434851
-45.103249 9.7434998 8.6482506
-44.903061 9.5976152 8.6449785
-45.378113 9.8387785 8.575223
-45.133339 9.7503338 8.5373335
-48.722393 -0.78122216 8.8505564
-48.576668 -0.71090478 8.8871431
-48.348721 -0.58370018 8.8922977
-48.345745 -0.36477643 8.883462
-48.311501 -0.066 8.9165001
-48.238003 -0.028999999 8.9075003
-46.866047 0.086428575 8.8361197
-46.650242 0.18994762 8.8842688
-46.429085 0.39930138 8.8721342
-45.63163 2.5109167 8.8477497
-45.446682 2.6487122 8.9017992
-45.393097 2.8909204 8.8527384
-44.95483 4.1954784 8.8541842
-45.006001 4.2659998 8.868
-44.76466 4.6475625 8.9077778
-44.693497 4.6765003 8.8309994
-44.611736 4.860579 8.8909454
-44.750336 5.2220001 8.843667
-44.676884 5.1117129 8.8717079
-44.085194 6.9092774 8.8963175
-44.005337 7.0180006 8.8891678
-43.969536 7.1162844 8.8697176
-43.895466 7.3447809 8.872982
-44.021336 7.7487779 8.9575558
-43.948498 7.5944724 8.893961
-44.108421 7.871223 8.8882952
-44.533253 8.4708166 8.8575506
-44.500999 8.5749998 8.9399996
-44.466145 8.5240717 8.9099293
-45.033337 9.727334 8.8405561
-44.910522 9.6138067 8.8779955
-45.337837 9.8369999 8.8827505
-48.753002 -0.78299999 9.1553335
-48.740337 -0.78266668 9.0473347
-48.58844 -0.70522863 9.1129856
-48.371078 -0.58626819 9.1400986
-48.332981 -0.3733128 9.1177788
-48.325718 -0.10835833 9.1156693
-46.861588 0.10314999 9.1144562
-46.656586 0.20110416 9.1617298
-46.546501 0.25049999 9.1417494
-46.4389 0.38913909 9.1323004
-45.681778 2.527889 9.1447783
-45.452484 2.6480925 9.1051397
-45.395599 2.9084992 9.1298618
-45.233372 3.4238703 9.1381865
-45.211292 3.5201666 9.0911665
-44.773781 4.6550975 9.1054173
-44.667919 4.7482309 9.2429228
-44.621059 4.8541269 9.1157179
-44.655239 5.1147594 9.1156368
-44.084972 6.9139934 9.1339417
-44.008209 7.0267916 9.1021671
-43.977283 7.1106534 9.1421423
-43.89476 7.3533869 9.1178846
-44.019783 7.7480559 9.1034451
-43.949608 7.6033068 9.1269779
-44.097157 7.866693 9.1450109
-44.531361 8.4775 9.1446943
-44.499001 8.4779997 9.0819998
-44.471619 8.5374556 9.1044388
-44.918636 9.6399632 9.1324673
-45.202419 9.7983751 9.0869999
-48.751335 -0.78366661 9.2606668
-48.719707 -0.75475001 9.4046669
-48.60807 -0.7026667 9.3670673
-48.349262 -0.5659762 9.380929
-48.368908 -0.33517501 9.3764391
-48.281876 -0.027249999 9.3935413
-48.163975 0.024333332 9.3654051
-46.870621 0.11039166 9.3738585
-46.661125 0.21025001 9.3900003
-46.553223 0.25866666 9.3542223
-46.455883 0.36796296 9.3937416
-46.36063 0.61662894 9.3874092
-45.457253 2.6503687 9.3560009
-45.391109 2.8874753 9.3640299
-45.238899 3.4225783 9.3951702
-45.216309 3.5321114 9.3561106
-44.776279 4.6670556 9.3525562
-44.617493 4.8827028 9.387826
-44.670315 5.1322513 9.3575468
-44.275253 6.5985003 9.4787502
-44.096928 6.9159384 9.3864851
-44.011669 7.0349293 9.3636122
-43.982563 7.114584 9.3990421
-43.902908 7.335968 9.3605852
-43.943768 7.598618 9.3624983
-44.099815 7.8684225 9.3808994
-44.549835 8.4864998 9.406167
-44.510666 8.5105 9.3841667
-44.46632 8.545598 9.3578615
-44.914417 9.6438198 9.3727646
-45.335831 9.8588753 9.4036255
-45.120777 9.7796669 9.3511114
-48.73772 -0.75166672 9.6480551
-48.590668 -0.68240005 9.6267338
-48.364983 -0.56819069 9.6300182
-48.333206 -0.36123738 9.616992
-48.34573 -0.085928582 9.6520424
-46.878597 0.12006944 9.6339302
-46.683502 0.20833333 9.581111
-46.549755 0.27470002 9.6498222
-46.453396 0.38761705 9.6309948
-46.359112 0.63664997 9.6451674
-45.627392 2.5548332 9.6433887
-45.478451 2.6104722 9.6077232
-45.399384 2.8845816 9.630229
-45.393002 3.0190001 9.6402235
-45.251999 3.3903334 9.5731659
-45.231834 3.4548888 9.6033325
-45.218555 3.5334446 9.6489449
-44.948261 4.2567039 9.6488523
-44.773869 4.6864166 9.6648836
-44.714001 4.7083335 9.5343342
-44.630894 4.8638706 9.6200809
-44.757004 5.1735001 9.5561666
-44.564289 5.7037888 9.6330566
-44.301731 6.4334373 9.6323967
-44.320835 6.5256672 9.6879168
-44.093567 6.9251451 9.6420002
-44.013866 7.0431671 9.6049919
-43.980892 7.1318564 9.6255722
-43.906944 7.3418841 9.6390162
-43.942963 7.6022277 9.6235104
-44.0928 7.8796597 9.6339417
-44.5755 8.4904995 9.5935001
-44.52142 8.5111389 9.6451397
-44.474384 8.5682535 9.6272621
-44.910782 9.6400652 9.6340313
-45.269169 9.8435001 9.6001663
-45.097889 9.784112 9.6372232
-48.622787 -0.68589586 9.8661051
-48.386974 -0.56587499 9.8958607
-48.353298 -0.11044048 9.8485422
-46.890717 0.12514667 9.8697872
-46.698139 0.21402778 9.8463898
-46.538834 0.29150003 9.9090004
-46.452415 0.40316665 9.8996944
-46.375862 0.60579014 9.8859262
-45.470486 2.6445312 9.8693094
-45.395912 2.8830409 9.8748798
-45.24052 3.4542964 9.8535929
-45.210155 3.6223195 9.9169168
-45.11071 3.8760707 9.9412518
-44.816936 4.6536875 9.9109373
-44.624229 4.8931942 9.8644543
-44.659386 5.1357803 9.8608561
-44.691273 5.3796105 9.9635
-44.585934 5.646729 9.9076385
-44.53339 5.8695836 9.8361406
-44.487381 5.9505477 9.910326
-44.505501 6.0285001 9.8024998
-44.423183 6.1517277 9.862525
-44.336094 6.3788085 9.8539143
-44.282303 6.5320916 9.8608084
-44.228542 6.6802917 9.9139175
-44.133026 6.8832426 9.8849592
-44.013607 7.0618334 9.8887501
-43.978233 7.1551547 9.8940907
-43.905312 7.3637891 9.8776245
-43.948437 7.6239066 9.8583574
-44.073708 7.8599267 9.871191
-44.316669 8.1868887 9.8392954
-44.213123 8.020937 9.8685627
-44.546501 8.4840002 9.7854996
-44.403362 8.3920422 9.8319864
-44.542282 8.6403608 9.8419027
-44.473114 8.5647039 9.8568525
-44.633778 8.8825617 9.8086329
-44.906982 9.6435242 9.8814583
-45.394623 9.900959 9.8505001
-45.155209 9.8174171 9.904459
-48.627605 -0.67539293 10.122452
-48.393291 -0.56180739 10.109091
-48.384102 -0.14385334 10.128961
-47.848598 -0.22450002 10.2061
-47.641407 -0.10927917 10.164312
-48.157269 0.058133334 10.115667
-47.134113 0.081222229 10.199555
-46.85675 0.15141667 10.108418
-46.699009 0.22625001 10.134434
-46.579712 0.28158334 10.143583
-46.458832 0.40211114 10.104751
-46.379726 0.61050332 10.130202
-45.609867 2.5665998 10.117134
-45.456432 2.6939099 10.107153
-45.396427 2.9078786 10.141213
-45.32959 3.3218374 10.092887
-45.243042 3.4551671 10.105461
-45.192215 3.6199098 10.059548
-45.088375 3.8900242 10.04238
-44.797054 4.6675391 10.109067
-44.746502 4.7248335 10.1385
-44.633965 4.8848753 10.106029
-44.649841 5.1345634 10.124715
-44.688171 5.399889 10.0125
-44.597477 5.660625 10.110167
-44.294132 6.4683213 10.127215
-44.273335 6.5165 10.111334
-44.098412 6.9514933 10.127893
-44.015251 7.0700331 10.132811
-43.982315 7.1588192 10.106464
-43.90947 7.3627219 10.126534
-43.937077 7.6097527 10.145672
-44.07589 7.8724008 10.119072
-44.901981 9.6406059 10.133595
-45.300835 9.8789577 10.096875
-45.076435 9.7988663 10.121634
-48.751999 -0.71800005 10.451334
-48.647526 -0.67294043 10.349143
-48.391827 -0.55034673 10.371354
-48.302662 -0.37852776 10.370137
-47.655003 -0.086083338 10.401834
-48.156406 0.063925929 10.346185
-46.872845 0.15571429 10.357458
-46.738998 0.22033334 10.397334
-46.589836 0.28777081 10.367313
-46.458893 0.41057539 10.354009
-46.374504 0.63650453 10.375071
-45.479153 2.6528487 10.344697
-45.406128 2.872824 10.373217
-45.41037 3.0445428 10.395369
-45.241894 3.4622593 10.363519
-44.956234 4.2980337 10.3654
-44.799957 4.7048335 10.348001
-44.649994 4.8608027 10.3575
-44.591999 5.6805625 10.372247
-44.342789 6.5774193 10.376099
-44.129967 6.9129934 10.407729
-44.015999 7.081356 10.3718
-43.98489 7.1655936 10.361482
-43.92009 7.3452959 10.392147
-43.944843 7.6330557 10.383045
-44.075211 7.8827791 10.361335
-44.209393 8.0946217 10.415242
-44.896736 9.6367855 10.371405
-45.642334 9.9886665 10.319667
-45.449333 9.9455833 10.403666
-45.167068 9.8422995 10.351168
-44.958054 9.7537336 10.411934
-48.763168 -0.71905559 10.643444
-48.641197 -0.65439582 10.638103
-47.675686 -0.054649659 10.613619
-47.008499 0.124 10.7015
-46.852161 0.17794049 10.621168
-46.596832 0.29512501 10.595042
-46.466888 0.40783703 10.643868
-46.380756 0.63404167 10.610805
-46.329655 0.9034549 10.650854
-45.481304 2.6655593 10.640677
-45.409512 2.857682 10.637914
-45.369732 3.1361563 10.615483
-45.027683 4.1259084 10.571518
-44.838062 4.627739 10.561445
-44.725891 4.6803608 10.656084
-44.656307 4.8603148 10.606916
-44.625118 5.1108842 10.630244
-44.090313 6.8863897 10.622325
-44.02494 7.0705614 10.629328
-43.98877 7.1669302 10.60625
-43.913479 7.3762951 10.623871
-43.9375 7.6270781 10.631639
-44.059399 7.8798943 10.629161
-44.181885 8.1347094 10.63175
-44.301559 8.3847008 10.629644
-44.242165 8.2601662 10.601833
-44.401253 8.5955563 10.6045
-44.541843 8.8919115 10.644649
-44.477261 8.7558146 10.64792
-44.64616 9.1112423 10.624091
-44.789516 9.4131374 10.631804
-44.7225 9.269083 10.6045
-44.880634 9.6106253 10.629048
-45.388332 9.9319162 10.568749
-45.105499 9.8336039 10.645187
-44.947582 9.7519169 10.608833
-48.750668 -0.68966669 10.955666
-48.603775 -0.62432408 10.861426
-48.415501 -0.53316671 10.896167
-48.294716 -0.47022501 10.859467
-47.623566 -0.15139796 10.851857
-47.398911 -0.054287877 10.86653
-47.299 0.03875 10.753334
-47.117481 0.076966673 10.876092
-46.858997 0.18759583 10.89239
-46.739498 0.23599999 10.75725
-46.596294 0.30772224 10.851597
-46.469463 0.41432291 10.896191
-46.383823 0.64000523 10.857768
-46.288002 0.9002986 10.872573
-45.642864 2.5879366 10.898374
-45.485176 2.6712856 10.890968
-45.262421 3.2581434 10.855061
-45.207973 3.4068751 10.869783
-45.126244 3.6211789 10.857998
-45.048492 3.8314056 10.861989
-44.991898 3.9818749 10.88595
-44.928123 4.1513648 10.865407
-44.84996 4.3600745 10.85359
-44.778778 4.5507402 10.851223
-44.729496 4.683435 10.856216
-44.66124 4.8623333 10.856299
-44.608532 5.1014938 10.887161
-44.536167 5.634789 10.86134
-44.458866 5.8498926 10.875914
-44.370369 6.1036267 10.87149
-44.292934 6.3172131 10.852603
-44.248444 6.4448891 10.897889
-44.182178 6.6318221 10.870977
-44.09201 6.8901358 10.865524
-44.023048 7.0895777 10.869878
-43.989166 7.1800003 10.855334
-43.924618 7.3572021 10.862474
-43.925644 7.6085382 10.865041
-44.05962 7.8877707 10.860811
-43.990337 7.750001 10.944834
-44.16206 8.1034136 10.861584
-44.305817 8.4061165 10.885063
-44.235409 8.257741 10.849185
-44.397518 8.5968704 10.868822
-44.543484 8.9034615 10.895561
-44.481823 8.7779627 10.923541
-44.638096 9.0990257 10.863788
-44.781105 9.4034815 10.875923
-44.720692 9.2715693 10.858043
-44.898575 9.6551666 10.879871
-45.293896 9.9095001 10.847778
-45.094166 9.8415556 10.9235
-44.970329 9.7790012 10.871834
-48.756451 -0.68360001 11.14805
-48.622475 -0.61738098 11.147515
-48.447979 -0.53496671 11.146423
-48.287769 -0.46033335 11.128667
-48.102364 -0.37454766 11.12298
-47.904514 -0.28302005 11.130453
-47.790001 -0.22600001 11.236334
-47.639973 -0.16245715 11.120115
-47.372013 -0.03990278 11.113139
-47.112816 0.080366664 11.123567
-46.892811 0.18287501 11.135292
-46.759335 0.25066668 11.244334
-46.642708 0.29916665 11.122863
-46.473694 0.41427779 11.098333
-46.385887 0.64926291 11.123828
-46.294876 0.89798981 11.14397
-46.208935 1.1305302 11.140454
-46.117374 1.3764592 11.128325
-46.042812 1.5803455 11.130705
-45.998501 1.6965001 11.106
-45.938534 1.8694248 11.130054
-45.841713 2.1354396 11.146708
-45.780067 2.30425 11.104355
-45.726665 2.4558983 11.148842
-45.633102 2.5892224 11.121151
-45.488056 2.6815557 11.143277
-45.417751 2.8682721 11.142187
-45.322639 3.1238985 11.147269
-45.270615 3.2598381 11.137792
-45.215809 3.4066181 11.123627
-45.137882 3.6172726 11.112628
-45.046749 3.8586133 11.120673
-44.99472 3.9963887 11.133306
-44.934479 4.1560659 11.134579
-44.852848 4.3713613 11.124086
-44.774185 4.580111 11.119666
-44.726578 4.7081008 11.128178
-44.665813 4.8628802 11.106357
-44.593491 5.0979013 11.124089
-44.630714 5.3793197 11.1041
-44.533047 5.6538205 11.131195
-44.462116 5.8546672 11.132055
-44.371193 6.1132889 11.125482
-44.265934 6.4083776 11.129511
-44.18618 6.6375709 11.124237
-44.098782 6.8893929 11.125275
-44.032684 7.0756288 11.126799
-43.993202 7.18085 11.1005
-43.920376 7.380106 11.11771
-43.941959 7.6489472 11.130753
-44.0448 7.8686509 11.12947
-44.157043 8.1072664 11.124201
-44.295334 8.3965778 11.128355
-44.227783 8.2546301 11.146445
-44.390079 8.5948753 11.137861
-44.53709 8.8999586 11.125553
-44.482445 8.786375 11.148181
-44.642288 9.1214333 11.12041
-44.788582 9.4302835 11.133225
-44.715919 9.2731676 11.108583
-44.885033 9.6369181 11.134661
-45.441666 9.9750013 11.143333
-45.201557 9.8877783 11.103779
-44.958004 9.7801523 11.147278
-48.647976 -0.61633337 11.398556
-48.445168 -0.52024996 11.40425
-48.332588 -0.46954167 11.375918
-48.139507 -0.38188574 11.352776
-47.956963 -0.29699999 11.3704
-47.808002 -0.22683334 11.398917
-47.621746 -0.14404444 11.382291
-47.414722 -0.048713334 11.372374
-47.266582 0.022333335 11.407
-47.13673 0.079738893 11.353306
-46.890148 0.19542222 11.36319
-46.751228 0.26137501 11.405375
-46.624508 0.31877291 11.356475
-46.482227 0.41384125 11.350235
-46.404919 0.61718631 11.352883
-46.30743 0.88065743 11.402519
-46.203323 1.1592102 11.375908
-46.113941 1.4022816 11.363191
-46.03904 1.6065152 11.368361
-45.938309 1.8819982 11.360074
-45.847046 2.1339242 11.394917
-45.779949 2.3186181 11.357085
-45.731941 2.4560556 11.398722
-45.660427 2.5852468 11.367641
-45.492584 2.6819334 11.394117
-45.419895 2.8772006 11.384014
-45.327183 3.1244755 11.393382
-45.277782 3.2575555 11.390112
-45.213169 3.4274898 11.366291
-45.136501 3.634825 11.359348
-45.06039 3.8406837 11.366221
-44.997002 3.9979999 11.304
-44.949306 4.1334462 11.375857
-44.868656 4.3478189 11.367798
-44.783615 4.5739808 11.354813
-44.719208 4.7461667 11.396917
-44.663685 4.8840156 11.342492
-44.607018 5.1091619 11.373163
-44.63467 5.3843265 11.346776
-44.545166 5.6368408 11.379435
-44.468079 5.8536267 11.370128
-44.371033 6.1298156 11.367978
-44.284908 6.3746681 11.382955
-44.189411 6.649004 11.38866
-44.097248 6.9097047 11.371246
-44.029045 7.0966887 11.367158
-43.993725 7.1910834 11.355584
-43.932011 7.362834 11.360143
-43.925499 7.6207504 11.370428
-44.033833 7.8525066 11.365098
-44.140957 8.0841932 11.370161
-44.301765 8.4199343 11.370775
-44.220444 8.251833 11.395
-44.413177 8.6529942 11.373366
-44.541878 8.9226503 11.371317
-44.490501 8.8188343 11.383667
-44.630981 9.1083994 11.366554
-44.781971 9.423768 11.364578
-44.720367 9.2967701 11.379896
-44.873028 9.6229401 11.393631
-45.367218 9.9575005 11.347835
-45.11525 9.8672924 11.377459
-44.939297 9.7636385 11.397451
-48.756168 -0.65883332 11.6085
-48.621998 -0.592875 11.634501
-48.464169 -0.52133334 11.596667
-48.353287 -0.46833333 11.603149
-48.146523 -0.37266669 11.636396
-47.957794 -0.287 11.612
-47.832935 -0.2282 11.634267
-47.609673 -0.12783334 11.601834
-47.39978 -0.029244447 11.64915
-47.264004 0.0352 11.649401
-47.129723 0.095819056 11.63059
-46.911304 0.19699001 11.62662
-46.636627 0.32561043 11.63517
-46.476334 0.44338888 11.595888
-46.411537 0.61926806 11.637325
-46.321674 0.85916668 11.638397
-46.210926 1.1556247 11.589294
-46.114098 1.4227334 11.623421
-46.031818 1.6495953 11.62452
-45.949287 1.8694803 11.61597
-45.84536 2.1526091 11.618314
-45.784164 2.3271875 11.643376
-45.736336 2.4552221 11.603778
-45.654774 2.5959036 11.627854
-45.492168 2.6941667 11.601501
-45.425659 2.8768275 11.625718
-45.346344 3.0933428 11.645291
-45.27177 3.29425 11.662781
-45.224812 3.4131854 11.587005
-45.136082 3.6556396 11.6289
-45.057751 3.8666182 11.637192
-44.951496 4.1508789 11.645329
-44.871365 4.3630219 11.628758
-44.786224 4.5877371 11.620771
-44.726383 4.7442575 11.6479
-44.664459 4.8996601 11.607295
-44.609108 5.1230335 11.640378
-44.655952 5.3447981 11.627527
-44.548416 5.6475215 11.64058
-44.469082 5.8683887 11.611156
-44.383114 6.1170139 11.639072
-44.290241 6.380733 11.603929
-44.197418 6.6470423 11.629915
-44.105171 6.9104385 11.615328
-44.041512 7.0824714 11.6261
-43.98777 7.221312 11.55325
-43.927998 7.3923049 11.648933
-43.920158 7.6127415 11.626204
-44.033691 7.8594632 11.646099
-43.981861 7.7510004 11.645429
-44.15485 8.1199865 11.647711
-44.295341 8.4140587 11.646764
-44.226746 8.2603254 11.644421
-44.390648 8.6181984 11.633545
-44.541664 8.9195042 11.627497
-44.476215 8.7958736 11.630632
-44.635326 9.1222944 11.621782
-44.779114 9.4216251 11.647987
-44.727661 9.3214407 11.604813
-44.872173 9.6277447 11.61204
-45.291 9.9393892 11.586333
-45.031113 9.8475561 11.631111
-44.932705 9.7588148 11.643889
-45.455502 10.007833 11.709499
-48.753502 -0.65100002 11.759501
-48.633808 -0.58919525 11.877978
-48.491116 -0.5231111 11.848056
-48.346981 -0.45500001 11.862
-48.10738 -0.34500334 11.867973
-47.948799 -0.269575 11.9129
-47.817211 -0.20990002 11.915961
-47.622295 -0.12372667 11.831015
-47.424252 -0.028250001 11.904834
-47.300255 0.028750001 11.874916
-47.133907 0.10589583 11.876657
-46.896824 0.21630953 11.882025
-46.757 0.28200001 11.952
-46.613461 0.35008335 11.885437
-46.481522 0.44526985 11.846641
-46.412468 0.63291281 11.875136
-46.309566 0.91354871 11.86517
-46.25705 1.0556527 11.852509
-46.205822 1.1944584 11.853297
-46.135559 1.3831528 11.856493
-46.038975 1.6478581 11.864723
-45.964474 1.847934 11.866059
-45.87262 2.0994101 11.866244
-45.789444 2.3271945 11.901722
-45.743 2.4556296 11.84588
-45.646523 2.6070385 11.866156
-45.497448 2.6934445 11.856778
-45.431431 2.8760555 11.873121
-45.333931 3.1511524 11.883722
-45.280254 3.3200383 11.913014
-45.221844 3.4411297 11.84187
-45.166222 3.6224272 11.881174
-45.079044 3.8450563 11.886969
-45.015823 4.0927401 11.91092
-44.957767 4.15484 11.886441
-44.883156 4.3947725 11.88133
-44.806381 4.6051598 11.876888
-44.729908 4.7490907 11.838637
-44.752998 4.7702503 11.935749
-44.678974 4.8762155 11.872306
-44.620979 5.1316543 11.862161
-44.802002 5.2779999 11.9485
-44.672951 5.3910027 11.862483
-44.593044 5.6200047 11.869135
-44.497002 5.7459998 11.865
-44.563061 5.8694715 11.944319
-44.467854 5.8750606 11.80618
-44.502998 6.0019999 11.929
-44.406849 6.1493597 11.858076
-44.333225 6.3755097 11.852787
-44.294777 6.5874238 11.916581
-44.183735 6.6556664 11.793134
-44.167873 6.8686376 11.864765
-44.063778 7.0855136 11.882292
-43.939804 7.375206 11.883823
-43.917198 7.6117048 11.862636
-44.040672 7.881659 11.879672
-43.982315 7.7566662 11.907014
-44.278999 8.2445002 11.827
-44.172188 8.0702963 11.865629
-44.337677 8.3607006 11.815475
-44.531769 8.657567 11.887166
-44.457726 8.6153498 11.833542
-44.575329 8.8708611 11.792884
-44.697247 9.1222506 11.778277
-44.844715 9.5817327 11.873245
-45.403168 9.9951668 11.9085
-45.206417 9.9192085 11.855083
-44.957863 9.8033781 11.8633
-45.4305 10.002001 11.8235
-48.758003 -0.64350003 12.047167
-48.639015 -0.57917374 12.146379
-48.335896 -0.4158574 12.138795
-48.128803 -0.33241668 12.105778
-47.946373 -0.26487499 12.08625
-48.049999 -0.215 12.229
-47.837753 -0.17569445 12.139722
-47.638859 -0.11119048 12.11231
-47.445 -0.02925 12.07725
-47.345119 0.052666664 12.132785
-47.149002 0.12025001 12.100472
-46.924332 0.21433334 12.141019
-46.778 0.28200001 12.096834
-46.615459 0.3603611 12.149459
-46.484753 0.45716667 12.103167
-46.42503 0.6189326 12.125341
-46.336994 0.89253175 12.131747
-46.297215 1.1110555 12.140583
-46.209492 1.212881 12.054914
-46.181843 1.4147936 12.127617
-46.119175 1.5942891 12.102836
-46.039539 1.8466668 12.095347
-45.97327 1.8864793 12.051521
-45.90958 2.1453004 12.092108
-45.865803 2.3393576 12.116368
-45.745667 2.4533334 12.009334
-45.779419 2.5483334 12.081834
-45.642452 2.6459522 12.083669
-45.445595 2.8525896 12.131916
-45.416855 3.0902467 12.125187
-45.320927 3.3715549 12.048348
-45.287636 3.5763812 12.146906
-45.221127 3.6476252 12.032625
-45.137329 3.8756042 12.030293
-45.034199 4.1401334 12.025001
-44.960705 4.3678808 12.106534
-44.871334 4.5863333 12.007833
-44.793362 4.7883892 12.135388
-44.682903 4.8935041 12.135285
-44.619926 5.1471663 12.121293
-44.779877 5.2992334 12.093834
-44.747002 5.5580001 12.007
-44.608074 5.7964997 12.135528
-44.312229 6.5968952 12.114251
-44.143223 6.9928889 12.150779
-44.061172 7.0999393 12.130065
-43.959072 7.3349609 12.121087
-43.911739 7.6039557 12.115573
-44.048908 7.9048705 12.143092
-43.980721 7.7571111 12.104778
-44.163433 8.0496531 12.113571
-44.533672 8.6520834 12.131458
-44.488056 8.685112 12.117001
-44.832272 9.2410784 12.150167
-44.863392 9.6329508 12.134765
-45.3372 9.9791384 12.15039
-45.114708 9.8972702 12.136458
-44.944168 9.799593 12.122942
-48.76342 -0.62783337 12.398334
-48.612846 -0.55715334 12.372058
-48.344032 -0.38164866 12.369775
-48.399052 -0.17212856 12.42331
-47.655491 -0.030433333 12.352834
-47.687984 0.034440003 12.37744
-46.959167 0.21116668 12.39
-46.814064 0.27830836 12.37886
-46.615845 0.37230834 12.382802
-46.489765 0.46046665 12.347501
-46.427483 0.62832701 12.350442
-46.368721 0.8708272 12.386544
-46.666 1.0935 12.4035
-46.379997 1.0421042 12.392646
-46.201435 1.4259334 12.359067
-45.904999 2.2409999 12.35725
-45.904236 2.2746875 12.396012
-45.868999 2.589 12.288
-45.625553 2.6827776 12.350278
-45.446999 2.8620572 12.376298
-45.842999 3.2296247 12.372499
-45.657001 3.2160001 12.463
-45.40543 3.0683756 12.368182
-45.276352 3.5739136 12.369421
-44.957588 4.3740001 12.351126
-44.800133 4.7970338 12.381433
-44.708961 4.8811684 12.376025
-44.613583 5.1285834 12.385453
-44.78175 5.3330717 12.35462
-44.73867 5.2675004 12.403833
-44.596409 5.7862873 12.359768
-44.059856 7.1253066 12.369933
-43.956741 7.3620281 12.362738
-43.905697 7.5766678 12.385733
-44.048973 7.9114728 12.395889
-43.975632 7.7544446 12.354778
-44.172283 8.0723057 12.361862
-44.523499 8.6475 12.4016
-44.488266 8.6958199 12.351958
-44.857994 9.6257458 12.374251
-45.283501 9.9664993 12.321167
-45.091446 9.9014444 12.406222
-44.938015 9.7892637 12.368668
-45.469002 10.0375 12.4645
-48.778667 -0.62900007 12.592501
-48.656284 -0.56761903 12.61981
-48.329678 -0.35863698 12.631292
-48.401402 -0.15396667 12.629183
-47.669918 -0.031750001 12.605
-47.685913 0.050160713 12.645385
-47.023003 0.20900001 12.741501
-46.948032 0.22773333 12.648399
-46.823822 0.28757501 12.672955
-46.640717 0.37189049 12.624283
-46.4935 0.47016668 12.636723
-46.440945 0.61549473 12.651827
-46.368755 0.86986881 12.632012
-46.360168 1.0382222 12.646501
-46.19706 1.4491751 12.60815
-46.227375 1.50325 12.707875
-45.913086 2.2847145 12.631167
-45.7505 2.6735001 12.6235
-45.596123 2.7001903 12.618025
-45.455856 2.8533378 12.64677
-45.286949 3.5817249 12.661447
-45.214001 3.81125 12.734499
-45.069 4.1963887 12.731667
-45.018921 4.3980832 12.634583
-44.9683 4.4049287 12.664245
-44.902992 4.6338754 12.716452
-44.798798 4.8020797 12.651591
-44.69315 4.9041076 12.604064
-44.605366 5.1352944 12.61029
-44.811413 5.3618612 12.631801
-44.711987 5.3254418 12.661961
-44.695549 5.5914083 12.689244
-44.21246 6.913105 12.632611
-44.083351 7.1221666 12.627564
-43.969612 7.3436217 12.629913
-43.907135 7.5897698 12.620692
-44.043598 7.9095511 12.645755
-43.97039 7.7522221 12.605167
-44.282501 8.2403755 12.578875
-44.171146 8.0830975 12.620857
-44.360935 8.3785715 12.56461
-44.527458 8.6409998 12.607583
-44.472694 8.6588192 12.597031
-44.569111 8.8463345 12.573718
-44.694092 9.1049662 12.531441
-44.853535 9.624156 12.63696
-45.182831 9.9422503 12.5815
-44.936218 9.7974072 12.629813
-45.405003 10.023001 12.603001
-48.778503 -0.61955553 12.847835
-48.648891 -0.55433333 12.83711
-48.518665 -0.49211112 12.850723
-48.373226 -0.40247408 12.859542
-48.244801 -0.2606 12.9328
-48.398647 -0.15234999 12.864342
-48.102356 -0.18533331 12.925729
-47.892857 -0.091000006 12.900428
-47.691666 -0.030333335 12.848401
-47.639309 0.067864999 12.890927
-47.379807 0.13158333 12.914111
-47.179001 0.20900001 12.90675
-46.940666 0.243 12.904501
-46.835041 0.293125 12.903749
-46.628399 0.39264739 12.889535
-46.499252 0.46875 12.8825
-46.429302 0.65873343 12.887525
-46.37175 0.88624734 12.880685
-46.334625 1.1457713 12.895008
-46.267498 1.3057778 12.885972
-46.204288 1.4507807 12.851634
-46.166988 1.6047739 12.878024
-45.896969 2.3527272 12.845645
-45.813332 2.6072869 12.80968
-45.601204 2.7144001 12.871933
-45.461842 2.8522317 12.898602
-45.273026 3.607796 12.862243
-45.220917 3.743 12.786667
-45.170929 3.8622501 12.78414
-45.089794 4.0892086 12.758666
-44.961124 4.4060001 12.901376
-44.782288 4.8350296 12.892839
-44.674713 4.9546251 12.895708
-44.599251 5.1478839 12.863668
-44.776493 5.333931 12.895161
-44.655834 5.2548332 12.889
-44.063717 7.1374536 12.881869
-43.963001 7.3753614 12.87731
-43.909317 7.5994916 12.879865
-44.041363 7.9147916 12.894958
-43.984848 7.7923002 12.844586
-44.158955 8.0797949 12.86503
-44.530613 8.6882782 12.875278
-44.492329 8.7036972 12.857081
-44.85857 9.6423407 12.873787
-45.290836 9.9958344 12.919834
-45.082996 9.9186678 12.853889
-45.333336 10.005751 12.800667
-48.764999 -0.59766668 13.044666
-48.684898 -0.55502665 13.172847
-48.544582 -0.49391666 13.0965
-48.363235 -0.36995313 13.13725
-48.388802 -0.14106667 13.127341
-47.681671 -0.019666666 13.135388
-47.695309 0.066440478 13.169318
-46.964668 0.24183333 13.096334
-46.824753 0.30763891 13.104611
-46.616928 0.41009629 13.144422
-46.495331 0.49866667 13.108833
-46.438492 0.64948243 13.144572
-46.375443 0.8887372 13.099683
-46.373413 1.0578611 13.114549
-46.200848 1.4736806 13.144028
-46.190334 1.5 13.071333
-45.760056 2.7013891 13.140278
-45.510971 2.7390332 13.10735
-45.465351 2.8553014 13.126434
-44.963272 4.4115171 13.094075
-44.779213 4.8473749 13.098167
-44.680836 4.9540415 13.101708
-44.6082 5.1545935 13.136548
-44.796314 5.3847971 13.116333
-44.69894 5.2814579 13.121959
-44.077263 7.1376657 13.127978
-44.014561 7.25 13.144111
-43.967926 7.3753376 13.115037
-43.91658 7.6337485 13.134933
-44.032379 7.9038 13.126589
-43.990002 7.8161669 13.112667
-44.155983 8.0900917 13.142455
-45.167336 9.9605999 13.123166
-45.456448 10.067277 13.152722
-48.760002 -0.58333331 13.396417
-48.658081 -0.53350002 13.391
-48.553501 -0.48515001 13.354218
-48.361057 -0.35290477 13.400296
-48.388397 -0.14595556 13.354102
-46.863956 0.30112293 13.361768
-46.630585 0.4156746 13.370569
-46.498501 0.4975 13.311501
-46.441967 0.65480554 13.398973
-46.369663 0.86338633 13.351536
-46.360355 1.0506804 13.396729
-46.203438 1.4836042 13.408417
-46.204292 1.5303334 13.356042
-45.608101 2.7333002 13.378334
-45.510666 2.7520003 13.436667
-45.470543 2.8560255 13.359343
-45.411709 3.0753808 13.382812
-44.791183 4.8533554 13.354463
-44.693344 4.9380765 13.359673
-44.610405 5.1506519 13.35963
-44.802422 5.4000835 13.354617
-44.682003 5.2853336 13.36689
-44.094162 7.1413212 13.384705
-44.000999 7.3105001 13.4635
-43.95874 7.4178953 13.367083
-43.91243 7.617415 13.373672
-44.036034 7.9228621 13.369779
-43.989746 7.8234839 13.3596
-44.138935 8.0795078 13.371115
-45.105335 9.9510002 13.418389
-45.3685 10.045834 13.407834
-48.7575 -0.56783336 13.6035
-48.689556 -0.53477782 13.634056
-48.579777 -0.48257777 13.656471
-48.359371 -0.33276805 13.629402
-46.858315 0.31865242 13.649104
-46.623047 0.43162778 13.615499
-46.452499 0.64310503 13.639083
-46.37125 0.86327952 13.63478
-46.392567 1.0695976 13.648529
-46.203331 1.4911501 13.656816
-45.758003 2.7330003 13.652667
-45.741501 2.733 13.561
-45.510284 2.7650499 13.599533
-45.466736 2.8811855 13.627321
-45.417027 3.101182 13.631922
-44.800468 4.8663669 13.605867
-44.69873 4.9422655 13.647374
-44.615448 5.1552982 13.634846
-44.785721 5.3930721 13.659209
-44.633114 5.277667 13.648334
-44.099655 7.1438522 13.620068
-44.004391 7.3097777 13.650612
-43.964054 7.4192963 13.626541
-43.920868 7.645072 13.624292
-44.02964 7.9164443 13.604584
-43.98645 7.8281112 13.641556
-44.146347 8.0988922 13.642781
-44.53643 8.7119999 13.625768
-44.489334 8.7395 13.607167
-45.043671 9.9361668 13.597834
-45.335499 10.04475 13.670084
-48.764996 -0.55699998 13.957801
-48.745831 -0.55283332 13.805375
-48.598816 -0.47977084 13.905334
-48.39563 -0.36680284 13.872889
-46.879578 0.319175 13.869184
-46.620823 0.44287142 13.850388
-46.504333 0.52666664 13.915833
-46.459026 0.64106667 13.86729
-46.380039 0.85045892 13.878214
-46.380333 1.0685858 13.852015
-46.209671 1.4951668 13.9
-46.209267 1.54135 13.8685
-45.761669 2.7326667 13.758001
-45.75 2.7309999 13.824
-45.519676 2.7768583 13.879108
-45.466675 2.8988299 13.90298
-45.412903 3.129564 13.878314
-45.007 4.4910002 13.955999
-44.967255 4.4428 13.856845
-44.804379 4.8696666 13.84921
-44.703957 4.9516668 13.895208
-44.624382 5.1562686 13.885629
-44.784889 5.3903732 13.903874
-44.720749 5.3334169 13.900917
-44.093727 7.156961 13.860724
-44.007401 7.3207002 13.897202
-43.973804 7.4054632 13.876272
-43.91349 7.6404305 13.870191
-44.023712 7.9129376 13.854247
-43.981834 7.8255835 13.895917
-44.144455 8.103797 13.879954
-44.530373 8.7307491 13.903625
-44.487793 8.7422085 13.84725
-44.505898 8.7784004 13.8765
-44.4925 8.7564993 13.845501
-45.167 9.9969997 13.997
-45.441956 10.091 13.895666
-45.204945 10.006111 13.897555
-48.772022 -0.55406666 14.107822
-48.671001 -0.50150001 14.153834
-48.590725 -0.46566668 14.117209
-48.400848 -0.35830835 14.106154
-47.000999 0.271 14.153
-46.876522 0.33250153 14.135412
-46.589863 0.47044 14.125891
-46.508915 0.52811116 14.143639
-46.475464 0.61587644 14.15088
-46.383377 0.85755038 14.125578
-46.381027 1.0609285 14.141988
-46.218502 1.4938332 14.143333
-46.1996 1.5441334 14.126902
-45.753998 2.7616668 14.242
-45.576508 2.7777812 14.117552
-45.471207 2.9035447 14.148576
-45.413837 3.1304262 14.12572
-44.972485 4.4541478 14.144925
-44.816086 4.8679171 14.094001
-44.710213 4.9673023 14.103997
-44.636646 5.1369324 14.149925
-44.787418 5.4031672 14.145595
-44.655869 5.2966337 14.087267
-44.726929 5.682786 14.227
-44.357738 6.6369305 14.166762
-44.2803 6.8356109 14.196589
-44.223801 6.954 14.220201
-44.136997 7.1191311 14.148788
-44.0172 7.2974362 14.115409
-43.978466 7.4036369 14.111401
-43.913094 7.6219406 14.107579
-44.02668 7.9281702 14.128115
-43.981918 7.8320003 14.101723
-44.261555 8.242444 14.138334
-44.141991 8.107583 14.092381
-44.349468 8.4052668 14.121401
-44.525269 8.7212229 14.100578
-44.465939 8.6739998 14.089291
-44.56657 8.8825598 14.116511
-44.495331 8.7726669 14.241
-44.686779 9.1329165 14.094695
-44.746601 9.2517996 14.0698
-45.147335 9.9919996 14.062
-45.365002 10.072166 14.1165
-48.767998 -0.5395 14.257
-48.73045 -0.51681668 14.378034
-48.566776 -0.44344446 14.316112
-48.385937 -0.33822778 14.333633
-48.077999 -0.127 14.482
-47.394669 0.21233334 14.465667
-47.255997 0.271 14.4645
-46.851051 0.35618752 14.376817
-46.613792 0.46854168 14.348521
-46.508835 0.54033327 14.346168
-46.483746 0.61114812 14.380296
-46.398373 0.83370835 14.328678
-46.377125 1.0829444 14.333972
-46.290455 1.3770695 14.438814
-46.210876 1.5938324 14.378506
-46.029831 2.0739999 14.425917
-45.991669 2.1713333 14.421333
-45.918812 2.3876441 14.397275
-45.825066 2.6290998 14.398054
-45.771 2.7609999 14.422
-45.514656 2.808825 14.382329
-45.475834 2.9058752 14.392418
-45.417572 3.1436818 14.356646
-45.651669 3.2986667 14.299
-45.403923 3.3450499 14.363676
-45.116444 4.1452379 14.310988
-45.06181 4.3190274 14.298306
-44.985657 4.4270105 14.359573
-45.007 4.5240002 14.274
-44.935688 4.6245666 14.28641
-44.834381 4.8513937 14.357913
-44.716217 4.9670258 14.354996
-44.640808 5.1401372 14.398866
-44.79221 5.4093428 14.349923
-44.624233 5.2918911 14.382151
-44.883999 5.526 14.479
-44.705276 5.6438403 14.27909
-44.308224 6.7045975 14.372113
-44.096188 7.1746712 14.377866
-44.014431 7.3244762 14.404524
-43.975586 7.4233513 14.370204
-43.917484 7.6420779 14.364386
-44.030701 7.9446249 14.398076
-43.98019 7.8368893 14.354209
-44.154697 8.1337652 14.35571
-44.526081 8.7391663 14.35725
-44.503834 8.8021669 14.397834
-44.489166 8.7703342 14.395167
-45.045334 9.9674454 14.346889
-45.636375 10.163 14.375834
-45.289665 10.053833 14.317
-45.241669 10.042 14.444334
-48.77586 -0.5299167 14.627777
-48.740997 -0.50599998 14.741
-48.593891 -0.44220001 14.629694
-48.388611 -0.33433098 14.639167
-48.32172 -0.14480557 14.615716
-47.902 -0.043499999 14.5275
-47.8815 0.022 14.6545
-47.680092 0.086468756 14.601562
-47.389503 0.19475001 14.508749
-47.2575 0.25299999 14.5205
-47.002998 0.2985 14.745501
-46.891388 0.34744793 14.596958
-46.664047 0.45725 14.635187
-46.518303 0.54010004 14.603017
-46.478916 0.63872868 14.664691
-46.396286 0.85547805 14.613259
-46.381916 1.0752263 14.628959
-46.212555 1.5542222 14.599944
-45.921032 2.3809168 14.650779
-45.566135 2.7999001 14.624899
-45.480412 2.9077575 14.649041
-45.424526 3.1399105 14.616036
-45.294415 3.6879025 14.652667
-44.972187 4.466289 14.645211
-45.0075 4.5219998 14.639
-44.993 4.52 14.686
-44.811405 4.8987336 14.629199
-44.716896 4.9750748 14.629351
-44.646164 5.1406298 14.635959
-44.792019 5.4198413 14.646682
-44.653721 5.3184471 14.62504
-44.863251 5.5695 14.63575
-44.730598 5.7452002 14.735599
-44.65892 5.8993473 14.642869
-44.627003 6.1051335 14.731801
-44.538498 6.3210001 14.721001
-44.504002 6.5229998 14.712
-44.360939 6.6708665 14.666814
-44.352001 6.87325 14.702301
-44.2314 6.9578004 14.745401
-44.290001 7.0408335 14.693334
-44.1269 7.1590719 14.637959
-44.013618 7.33634 14.606459
-43.979336 7.4297838 14.625941
-43.919388 7.6390052 14.625702
-44.02467 7.9397035 14.646629
-43.975845 7.8367362 14.644791
-44.154438 8.135067 14.643709
-44.539497 8.4694996 14.632
-44.364933 8.3650122 14.66293
-44.249798 8.2559996 14.662
-44.563416 8.6582508 14.603916
-44.409687 8.5876055 14.685914
-44.771 8.9510002 14.613
-44.552021 8.8836775 14.658625
-44.476471 8.7745419 14.629875
-44.644405 9.1164341 14.662216
-44.823013 9.6249619 14.620624
-45.426334 10.113778 14.654889
-45.181877 10.027583 14.620062
-48.776112 -0.51900005 14.853833
-48.610401 -0.43897668 14.871941
-48.381954 -0.31033015 14.878717
-47.692146 0.13677916 14.875284
-47.474998 0.233 14.988
-47.313751 0.27575001 14.98925
-47.021 0.29800001 14.806
-46.880451 0.36436668 14.863595
-46.689316 0.45654443 14.885356
-46.526524 0.5482704 14.848927
-46.461681 0.69859731 14.897104
-46.395294 0.87602079 14.859633
-46.342243 1.4073095 14.952335
-46.304333 1.6261667 14.900833
-46.205738 1.6248425 14.881718
-46.255669 1.8463333 14.920668
-46.146782 1.9024223 14.938657
-46.102955 2.1291206 14.923228
-45.99025 2.1732502 14.9545
-46.046997 2.3598332 14.8875
-45.912735 2.3630829 14.91507
-46.016914 2.5865836 14.890583
-45.872372 2.6216002 14.930849
-45.745338 2.6573334 14.982666
-45.804264 2.7646334 14.89799
-45.562237 2.8194048 14.880451
-45.482086 2.9195604 14.89092
-45.420177 3.1507726 14.858927
-45.552334 3.3708334 14.848666
-45.38678 3.36637 14.910024
-45.32806 3.6226182 14.861273
-45.220936 3.7084363 14.947617
-45.358707 3.8248334 14.827625
-45.182781 3.9051073 14.900828
-45.255798 4.0374002 14.82
-45.12289 4.1500697 14.879925
-45.087433 4.3534918 14.829857
-44.962864 4.379014 14.921374
-45.025543 4.63025 14.791208
-44.90699 4.626544 14.870799
-44.843525 4.8228998 14.858812
-44.729996 4.9534998 14.908167
-44.651203 5.1447001 14.879614
-44.813251 5.4256668 14.797667
-44.671463 5.3741622 14.886124
-44.783482 5.5839639 14.760196
-44.664925 5.6369648 14.87138
-44.591228 5.8707466 14.84457
-44.548256 6.1210113 14.79809
-44.468418 6.0959439 14.903779
-44.406197 6.3483629 14.849273
-44.312962 6.5895953 14.865477
-44.261761 6.8061886 14.767092
-44.192944 6.8627954 14.885844
-44.093418 7.1507483 14.86479
-44.020489 7.3376846 14.846787
-43.988766 7.4227085 14.852236
-43.920193 7.6136203 14.866841
-44.019268 7.9349585 14.902014
-43.952782 7.7945304 14.871448
-44.100414 8.1044617 14.872627
-44.270428 8.4564581 14.853856
-44.199512 8.3048677 14.855823
-44.349899 8.6284981 14.851222
-44.514336 8.9793339 14.89375
-44.458496 8.8588037 14.861752
-44.590477 9.1370325 14.886619
-44.70293 9.3720512 14.862812
-44.821453 9.6296301 14.851144
-45.056 9.9969997 14.969999
-45.318085 10.087833 14.917333
-45.090668 10.0055 14.874001
-48.783783 -0.5088889 15.1455
-48.629345 -0.4357 15.147223
-48.378418 -0.31216908 15.11801
-47.872292 -0.070180565 15.143241
-47.872448 0.017866665 15.0299
-47.608841 0.069859535 15.123845
-47.382759 0.16186666 15.140422
-47.19075 0.23516667 15.194333
-47.133751 0.2818 15.115133
-46.899582 0.36926115 15.146689
-46.688271 0.46875 15.128385
-46.529182 0.56920087 15.152334
-46.471691 0.6890009 15.1474
-46.405163 0.86339289 15.103239
-46.330849 1.1169444 15.114492
-46.263062 1.3101876 15.121468
-46.2117 1.4029361 15.133052
-46.137245 1.6452053 15.112477
-46.058815 1.8871893 15.093701
-45.995632 1.9896666 15.148622
-46.030834 2.0936668 15.003834
-45.936783 2.1435926 15.099824
-45.866463 2.3381855 15.13633
-45.789532 2.5496809 15.150743
-45.729248 2.7049999 15.047251
-45.613758 2.8053334 15.109842
-45.483131 2.934957 15.128695
-45.402847 3.1540897 15.115265
-45.304531 3.4238436 15.137667
-45.256039 3.5513725 15.15105
-45.205948 3.6851227 15.149514
-45.123074 3.9059753 15.153765
-45.039204 4.130115 15.139206
-44.950539 4.3658361 15.135987
-44.850727 4.6329527 15.11826
-44.786346 4.8089285 15.142693
-44.73328 4.9461112 15.146873
-44.66991 5.1105804 15.130362
-44.659554 5.3771667 15.131352
-44.640629 5.6298776 15.117751
-44.557304 5.8636928 15.134584
-44.504166 6.0101671 15.1095
-44.466839 6.1170697 15.125756
-44.3829 6.348352 15.114415
-44.298004 6.5850115 15.118892
-44.240448 6.7475286 15.143223
-44.190353 6.8844566 15.103924
-44.099117 7.1386557 15.125326
-44.022209 7.3480835 15.096001
-44.02182 7.9464135 15.145058
-44.114227 8.1398506 15.128813
-44.267445 8.460722 15.100333
-44.203285 8.3270082 15.145585
-44.343975 8.6231632 15.134346
-44.513466 8.9792843 15.100533
-44.450787 8.8490381 15.123248
-44.593349 9.1494999 15.132426
-44.712891 9.4011803 15.136683
-44.801182 9.5933046 15.14881
-45.380169 10.118667 15.122499
-48.799831 -0.51049995 15.380834
-48.615501 -0.41963333 15.368566
-48.361904 -0.30072618 15.382108
-48.244335 -0.25200003 15.257
-48.12175 -0.18968053 15.384307
-47.867222 -0.070809528 15.364695
-47.747337 -0.017500002 15.347167
-47.605305 0.051749997 15.369067
-47.392567 0.14935417 15.347425
-47.225334 0.22833334 15.399667
-47.072121 0.29889584 15.366374
-46.860882 0.39866668 15.378952
-46.71196 0.47054172 15.398251
-46.551193 0.566975 15.373354
-46.47332 0.70449996 15.401764
-46.40147 0.89447045 15.363719
-46.314079 1.1276377 15.378806
-46.266838 1.2581527 15.399382
-46.206024 1.4225538 15.364377
-46.121246 1.6544225 15.368083
-46.037983 1.8814278 15.383343
-45.996334 1.9920001 15.399668
-45.941643 2.1462696 15.349834
-45.862087 2.3677442 15.381536
-45.78017 2.5937359 15.379415
-45.632507 2.8088498 15.350616
-45.485889 2.9376667 15.349185
-45.408916 3.1478019 15.358526
-45.315453 3.4081345 15.379718
-45.263168 3.5498888 15.396111
-45.218048 3.6723371 15.395282
-45.149288 3.8585002 15.400254
-45.037472 4.1553774 15.379669
-44.966755 4.3421617 15.375028
-44.866455 4.6097879 15.365949
-44.792202 4.8110833 15.388227
-44.740166 4.9449587 15.400249
-44.668068 5.1272573 15.371121
-44.673031 5.4069414 15.383821
-44.638062 5.6541681 15.365034
-44.561611 5.8633037 15.380981
-44.507755 6.0155334 15.348956
-44.4585 6.1424279 15.387451
-44.381779 6.3525958 15.362012
-44.291618 6.5965486 15.367719
-44.239742 6.7472591 15.397125
-44.180538 6.8857193 15.37396
-44.089642 7.1438169 15.376563
-44.015713 7.3757715 15.359503
-43.955433 7.4049749 15.44617
-44.015251 7.9568334 15.373167
-44.087452 8.1312618 15.356999
-43.970772 8.0851879 15.477833
-44.257629 8.4587898 15.303654
-44.134068 8.3626232 15.431765
-44.31641 8.6450615 15.357036
-44.204346 8.5911665 15.457473
-44.512169 8.984333 15.296249
-44.390255 8.8598051 15.375891
-44.56802 9.1687336 15.331526
-44.625633 9.3832521 15.372317
-44.476665 9.3186665 15.481667
-44.785645 9.6773329 15.351596
-44.673206 9.6086884 15.422034
-44.713726 9.8082504 15.461926
-45.115948 10.133491 15.372316
-48.806 -0.51200002 15.508
-48.761917 -0.47716665 15.600333
-48.592464 -0.40003893 15.648845
-48.388901 -0.30382502 15.634984
-48.256004 -0.23700002 15.640666
-48.128292 -0.17960417 15.607625
-47.884502 -0.062819444 15.633778
-47.746334 -0.0020000001 15.547668
-47.606247 0.063559994 15.63192
-47.384583 0.16106667 15.649695
-47.24025 0.227 15.64175
-47.09103 0.29504523 15.631615
-46.892937 0.39155954 15.629385
-46.732513 0.46628749 15.616275
-46.396996 0.89229447 15.634064
-46.317013 1.1127715 15.614365
-46.2467 1.1562999 15.7388
-46.268639 1.2546113 15.596605
-46.201992 1.3916572 15.63943
-46.102383 1.6452047 15.645441
-46.041355 1.8704611 15.591205
-45.963795 1.9386208 15.676758
-45.905594 2.1521056 15.644114
-45.826481 2.3706429 15.635224
-45.726429 2.455143 15.731572
-45.78434 2.5706801 15.57966
-45.694607 2.6611574 15.683389
-45.439697 2.7469001 15.7263
-45.636002 2.8029447 15.598353
-45.42725 2.8980339 15.671133
-45.376572 3.1271136 15.618152
-45.29694 3.3658407 15.600063
-45.260113 3.5484445 15.554334
-45.143166 3.6303768 15.647676
-45.092613 3.8459976 15.612724
-44.965542 3.9277222 15.703294
-45.027138 4.1099644 15.568396
-44.873917 4.3677073 15.613088
-44.803448 4.6239648 15.576487
-44.644054 4.8749709 15.624835
-44.579132 5.1405573 15.578049
-44.465088 5.1337051 15.697237
-44.589996 5.3930531 15.553906
-44.402115 5.3859153 15.66205
-44.572353 5.5939765 15.571879
-44.438869 5.6621003 15.690378
-44.535049 5.7996001 15.52825
-44.336803 6.1022339 15.602926
-44.223862 6.1918635 15.728659
-44.291073 6.3502812 15.54595
