# .PCD v0.7 - Point Cloud Data file format
VERSION 0.7
FIELDS x y z
SIZE 4 4 4
TYPE F F F
COUNT 1 1 1
WIDTH 119
HEIGHT 1
VIEWPOINT -18.2321 96.2205 -1.35163 -0.354149 -0.00701479 0.0211809 0.934923
POINTS 119
DATA ascii
98.291 177.968 22.218
98.244003 178.18401 22.249001
97.887001 179.91299 22.221001
97.843002 180.12 22.229
97.801003 180.35201 22.247999
98.304001 177.70599 22.357
98.288002 177.96201 22.363001
98.234001 178.16701 22.393
98.176498 178.37801 22.4055
98.135498 178.584 22.414499
98.089005 178.79999 22.411999
98.042664 179.10533 22.348333
97.983002 179.4895 22.368
98.018997 179.256 22.26
97.953499 179.729 22.4265
97.884003 179.91 22.365999
97.841003 180.117 22.370001
97.795998 180.343 22.386999
97.754997 180.58299 22.377001
98.364998 177.373 22.6245
98.301498 177.70151 22.574501
98.286003 177.95999 22.5805
98.238998 178.1765 22.609001
98.176003 178.377 22.618
98.139999 178.59399 22.631001
98.087997 178.798 22.627001
98.040672 179.10301 22.589334
98.022003 179.26401 22.694
97.978668 179.58099 22.653334
97.888 179.9165 22.580999
97.850494 180.136 22.591999
97.809998 180.36951 22.6105
97.764 180.601 22.597
97.723999 180.81451 22.5945
97.690002 181.078 22.613001
97.554665 181.30835 22.653336
97.479004 181.57901 22.5825
97.434494 181.80301 22.575001
98.518997 176.65401 22.99
98.439499 177.0715 22.861
98.389992 177.37166 22.823334
98.339333 177.67101 22.879667
98.279999 177.95151 22.8645
98.231003 178.16299 22.896
98.195496 178.41251 22.841499
98.147507 178.6095 22.852501
98.081665 178.88567 22.886332
97.978996 179.187 22.976
98.070999 179.062 22.826
97.968002 179.464 22.872
98.033997 179.287 22.841999
97.929001 179.68701 22.854
97.8825 179.90799 22.869999
97.837502 180.11301 22.879499
97.783997 180.32249 22.8925
97.696503 180.62201 22.9505
97.759003 180.59399 22.813999
97.671997 180.88199 22.8535
97.636497 181.129 22.8265
97.566498 181.28549 22.824001
97.451996 181.5305 22.866001
97.388748 181.86549 22.85675
98.540497 175.82599 23.174999
98.445 176.21201 23.226
98.512497 176.05551 23.084
98.472 176.25999 23.087999
98.472 176.571 23.122999
98.411751 176.879 23.10725
98.342499 177.1935 23.122
98.300499 177.39951 23.111
98.231003 177.577 23.205
98.269997 177.647 23.069
98.184669 177.88 23.168333
98.139 178.15399 23.137001
98.099998 178.3815 23.115501
98.054993 178.64168 23.098
97.972 178.88251 23.165501
97.919006 179.07901 23.178501
97.880005 179.40166 23.112333
97.822998 179.646 23.1315
97.716003 179.89101 23.215
97.797501 179.896 23.077
97.684494 180.1405 23.16
97.602661 180.40199 23.166
97.625 180.63499 23.08
97.5765 180.87 23.096001
97.3675 181.214 23.178501
97.528503 181.08099 23.101
97.241997 181.448 23.184999
97.449997 181.367 23.053499
97.200996 181.662 23.177999
97.387001 181.718 23.072001
97.154999 181.892 23.198999
97.334999 181.911 23.063
98.349998 175.905 23.443001
98.501999 175.758 23.377001
98.453995 176.09 23.327
98.344666 176.435 23.343332
98.162003 176.576 23.441
98.383003 176.685 23.281
98.119003 176.793 23.424999
98.313004 176.845 23.333
98.059006 177.118 23.43
98.273003 177.06799 23.323
98.134338 177.39833 23.361666
97.963501 177.6805 23.406
98.132004 177.686 23.333
97.907997 177.89301 23.423
97.867996 178.103 23.431
98.047997 178.14799 23.309999
97.856003 178.526 23.321999
97.819 179.194 23.268999
97.213997 181.395 23.325001
97.167999 181.60201 23.318001
97.119003 181.827 23.332001
98.324997 175.722 23.539
98.235001 176.1485 23.566
98.199997 176.358 23.528
98.053001 176.95599 23.552999
