# .PCD v0.7 - Point Cloud Data file format
VERSION 0.7
FIELDS x y z
SIZE 4 4 4
TYPE F F F
COUNT 1 1 1
WIDTH 335
HEIGHT 1
VIEWPOINT -18.2321 96.2205 -1.35163 -0.354149 -0.00701479 0.0211809 0.934923
POINTS 335
DATA ascii
60.446167 103.9445 0.094833344
60.63781 103.82674 0.11357142
60.138142 104.15379 0.11792856
60.296585 104.01717 0.13599999
59.688564 104.41693 0.121875
59.907612 104.33083 0.10277778
60.044998 104.254 0.17199999
59.237667 104.62634 0.14933334
59.403915 104.60908 0.13958333
59.562668 104.522 0.14333333
58.923923 104.91164 0.12185714
59.13443 104.83327 0.16671428
59.262001 104.832 0.117
60.450165 103.95217 0.347
60.63575 103.84275 0.36787501
60.175499 104.1485 0.37475002
60.302124 104.027 0.41187501
59.683002 104.472 0.41299999
59.852562 104.34081 0.34468752
60.045002 104.25366 0.34033334
59.228333 104.66333 0.38949999
59.431641 104.62493 0.40007141
59.559666 104.54567 0.40833333
58.889561 104.92962 0.40187502
59.133934 104.8156 0.38939998
60.454166 103.95817 0.59883332
60.640358 103.85071 0.6178571
60.175873 104.14925 0.60587502
60.299999 104.04041 0.61720002
59.682083 104.47009 0.63016665
59.851601 104.339 0.62179995
60.047623 104.25825 0.61312497
59.161499 104.7445 0.62275004
59.383545 104.61919 0.63599992
59.577332 104.54767 0.64666665
58.883667 104.92989 0.62166667
59.089249 104.82962 0.67287505
59.415001 104.771 0.73299998
58.779999 105.018 0.73400003
60.460003 103.96851 0.8506667
60.644997 103.8585 0.87150002
60.138573 104.16551 0.83714283
60.322803 104.0459 0.88249999
59.636497 104.45512 0.92224997
59.854191 104.32075 0.86975002
60.022999 104.303 0.76599997
59.182999 104.692 0.87150002
59.349087 104.62371 0.90470833
59.597 104.522 0.86466664
58.664001 104.975 0.85133332
58.890167 104.92441 0.88033336
59.112373 104.82271 0.89158332
58.7845 105.025 0.88275003
60.444496 103.985 1.064
60.650501 103.86594 1.1333125
60.155445 104.17783 1.0868057
60.333332 104.05417 1.1328334
59.696167 104.46851 1.1118333
59.872253 104.36362 1.1155
60.046501 104.2565 1.1395
59.188 104.701 1.166
59.402752 104.63751 1.11375
59.590996 104.5698 1.1626002
58.669998 104.98625 1.08225
58.88575 104.992 1.15925
59.109943 104.89962 1.1332778
59.376331 104.75967 1.2106667
58.610001 105.06375 1.0855
58.875801 105.04619 1.1327999
60.195339 104.18284 1.3403333
60.369625 104.0415 1.3768749
59.731003 104.4765 1.4184999
59.903004 104.4045 1.3653749
60.062126 104.28313 1.3694999
59.185333 104.69599 1.3330001
59.40419 104.70062 1.3985
59.607376 104.58575 1.399125
59.848 104.502 1.3890001
58.6735 104.99249 1.314
59.142601 104.90171 1.3399001
58.885113 105.04956 1.3803334
59.004002 105.063 1.311
60.189751 104.18684 1.6104584
60.355938 104.05875 1.6283126
59.711502 104.443 1.586
59.89225 104.40525 1.597
60.064873 104.28763 1.61125
59.188999 104.7035 1.60625
59.417397 104.6804 1.6468999
59.557251 104.59925 1.63125
58.676998 104.999 1.523
59.174751 104.85975 1.6140001
59.313 104.759 1.661
60.206001 104.119 1.76
60.370358 104.06062 1.8882143
59.711834 104.44434 1.8664999
59.88467 104.39434 1.788
60.108669 104.28083 1.794
59.192001 104.70866 1.8376666
59.457001 104.659 1.807
59.565002 104.613 1.822
59.159 104.83 1.761
60.212502 104.1305 2.11725
60.367447 104.05856 2.1352224
59.443001 104.484 2.2360001
59.6534 104.4044 2.1718001
59.893501 104.32449 2.1965001
60.113331 104.28799 2.187
59.181835 104.72018 2.0903332
59.336998 104.6638 2.2090001
58.859203 104.93251 2.1829
59.043999 104.83376 2.20175
60.484333 103.95249 2.3564999
59.985497 104.237 2.4029999
60.133442 104.16637 2.3586252
60.37167 104.0655 2.4010003
59.642441 104.38216 2.3951111
59.856998 104.26133 2.3629999
60.001999 104.266 2.276
59.228668 104.71883 2.3388333
59.411922 104.59225 2.3965833
58.7215 104.9125 2.3917501
58.894897 104.8542 2.391
59.1092 104.8094 2.365
59.98 104.22725 2.5912499
60.136002 104.16099 2.6070833
60.378609 104.07761 2.6437778
59.653358 104.39654 2.636091
59.862503 104.25867 2.58675
59.247253 104.72462 2.610625
59.426777 104.618 2.6557777
59.557999 104.513 2.7449999
58.720997 104.91134 2.664
58.888714 104.836 2.6390712
59.092896 104.8135 2.6302001
59.972668 104.215 2.8636668
60.130669 104.15189 2.8518889
60.369503 104.0862 2.9119999
60.532001 104.005 2.944
59.631752 104.44725 2.874125
59.81617 104.29747 2.882133
59.229 104.733 2.8864999
59.394627 104.65718 2.8702497
59.5695 104.533 2.9555001
58.723 104.91499 2.8734999
58.882416 104.85043 2.8959167
59.102196 104.797 2.8600001
59.938 104.2405 3.0304999
60.123569 104.16279 3.0924284
60.364754 104.07413 3.1347499
60.530998 104.00425 3.0910001
59.675499 104.45875 3.1639998
59.874226 104.34095 3.1433887
59.152584 104.7295 3.1228333
59.390079 104.66283 3.1400001
59.568123 104.55101 3.1382499
58.729752 104.92751 3.1062498
58.872219 104.83244 3.1539998
59.072338 104.78833 3.0343335
59.987999 104.243 3.368
60.132725 104.16572 3.3568332
60.378574 104.05464 3.3865714
60.542332 104.02334 3.365
59.710003 104.44132 3.3923333
59.887245 104.35667 3.3915
59.154858 104.72121 3.3591428
59.355572 104.66157 3.3390002
59.594913 104.57534 3.3972502
58.895374 104.82908 3.3863335
59.021 104.753 3.3369999
60.664001 103.93431 3.6251876
60.117401 104.1748 3.5989666
60.343876 104.03863 3.6378751
60.667667 104.01067 3.6370001
59.728333 104.47334 3.6456668
59.882061 104.38138 3.6297503
59.1511 104.70917 3.6055667
59.365917 104.62034 3.6215
59.594231 104.59821 3.6431
60.330002 103.991 3.812
60.540833 103.93267 3.8418334
60.179668 104.129 3.8030002
60.376568 104.10093 3.8857858
60.667625 104.02412 3.9386251
59.646999 104.4095 3.8125
59.888142 104.40001 3.8941426
60.083839 104.29514 3.8809669
59.385998 104.68766 3.8450832
59.634144 104.57436 3.8947144
58.962502 104.991 3.8740001
59.123997 104.886 3.8845713
59.250999 104.813 3.941
60.27 104.23 4.073
59.902439 104.43726 4.1329374
60.128071 104.30343 4.1199288
59.486 104.711 4.0799999
59.654278 104.59361 4.1262779
59.757999 104.526 4.2360001
58.957001 104.9805 4.0425
59.148056 104.88289 4.1124444
58.845051 105.11086 4.1452856
59.909599 104.44621 4.3830004
60.118427 104.32365 4.3925714
59.488998 104.567 4.2529998
59.68425 104.553 4.3872499
59.757248 104.52425 4.3835001
58.957001 104.982 4.2944999
59.113499 104.91776 4.3754997
59.255001 104.82034 4.3616667
59.924873 104.44487 4.6244998
60.131226 104.32162 4.6309443
59.687668 104.55966 4.6606669
59.7845 104.5275 4.6605
59.171497 104.8545 4.6329999
59.255501 104.82175 4.5932503
59.918335 104.45474 4.8590832
60.142506 104.3175 4.8957138
59.688004 104.56 4.8920002
59.810001 104.52675 4.8839998
59.134998 104.901 4.919333
59.257336 104.82633 4.8666668
59.535999 104.8 4.8410001
59.929379 104.45363 5.1089997
60.123997 104.33429 5.1082854
59.450001 104.7425 5.1829996
59.650002 104.6024 5.1738
59.802399 104.532 5.1506
59.177498 104.866 5.0810003
59.296001 104.8292 5.1334
59.948875 104.46137 5.41925
60.131496 104.34256 5.3890553
59.609802 104.6334 5.3276
59.8237 104.5334 5.3634005
59.17783 104.86749 5.3635001
59.415749 104.8135 5.27525
59.507999 104.752 5.4289999
59.945831 104.46934 5.6518331
60.138779 104.35528 5.637722
59.695251 104.5745 5.6087499
59.821873 104.54849 5.6221247
59.941498 104.487 5.8640003
60.134583 104.35772 5.8977084
59.673199 104.631 5.8312006
59.887001 104.52724 5.8844995
59.942997 104.49033 6.1583333
60.140945 104.36911 6.1440558
59.711998 104.605 6.1364999
59.8144 104.56999 6.0796003
59.193333 104.89567 6.1366668
59.365002 104.855 6.2119999
59.605 104.773 6.1999998
60.438 104.023 6.4899998
60.146122 104.37887 6.4043336
59.716 104.61166 6.346334
59.864624 104.55656 6.3609371
58.942001 104.957 6.2709999
59.155334 104.93951 6.3671665
59.598499 104.76151 6.3274999
60.456001 104.212 6.6440001
60.644329 104.09672 6.6488886
60.15155 104.38873 6.6509442
60.347099 104.28091 6.6570001
59.856453 104.57243 6.5996904
60.466328 104.23 6.8560004
60.634899 104.10126 6.8601999
60.142887 104.40717 6.8758931
60.351124 104.28838 6.89575
59.885883 104.57223 6.8503327
60.4715 104.2395 7.151
60.631763 104.11901 7.1278181
60.157391 104.39994 7.1486111
60.373333 104.31308 7.1394997
59.886074 104.57314 7.1117854
60.644348 104.11836 7.3639002
60.138603 104.4399 7.3574004
60.363003 104.32072 7.3794284
59.684002 104.69551 7.3790002
59.881111 104.60278 7.3578892
60.041332 104.51267 7.3379998
60.474998 104.247 7.533
60.140751 104.44167 7.6126666
60.353901 104.33624 7.6611505
59.680378 104.69025 7.6434999
59.878571 104.62236 7.5976424
60.040749 104.5125 7.6120005
60.153 104.42712 7.8775001
60.376812 104.33376 7.8923125
59.659668 104.70066 7.8923335
59.899555 104.59843 7.8653336
60.044003 104.519 7.844667
60.636002 104.15334 8.0681667
60.146667 104.44788 8.0826674
60.388664 104.34545 8.1136665
60.538002 104.251 8.1413336
59.662998 104.70667 8.1453333
59.899624 104.6215 8.1221876
60.051247 104.53225 8.078001
60.622093 104.185 8.3523998
60.156666 104.45583 8.3453331
60.422668 104.32999 8.4000006
60.523499 104.293 8.3347492
59.674004 104.7265 8.3797503
59.891438 104.64055 8.3882227
60.056 104.54166 8.3543329
60.166664 104.444 8.6040001
60.409428 104.35714 8.6245708
60.547394 104.25995 8.6294441
59.667 104.714 8.6110001
59.869305 104.64906 8.6182499
60.079666 104.52584 8.5646667
59.459 104.86 8.7399998
59.588501 104.7825 8.7307501
60.650436 104.18512 8.8712502
60.179836 104.43817 8.8484993
60.391499 104.38967 8.8726664
60.519249 104.3275 8.9109993
59.675003 104.72975 8.8880005
59.908001 104.61549 8.7692499
60.047001 104.526 8.7749996
59.244999 104.993 8.7620001
59.3545 104.925 8.7504997
60.661335 104.19041 9.0948334
60.1945 104.43575 9.0784998
60.453999 104.386 9.1619997
60.549999 104.3005 9.1132507
59.681499 104.741 9.1219997
60.204666 104.454 9.3563337
60.419502 104.414 9.4715004
60.548664 104.326 9.3933334
60.689232 104.18837 9.6367006
60.209251 104.46275 9.5904999
60.377998 104.43 9.6569996
60.549667 104.30216 9.6426668
60.216999 104.478 9.8660002
60.390285 104.4125 9.8675709
