# .PCD v0.7 - Point Cloud Data file format
VERSION 0.7
FIELDS x y z
SIZE 4 4 4
TYPE F F F
COUNT 1 1 1
WIDTH 81
HEIGHT 1
VIEWPOINT -18.2321 96.2205 -1.35163 -0.354149 -0.00701479 0.0211809 0.934923
POINTS 81
DATA ascii
-135.3855 -157.304 14.8815
-135.17599 -157.39 14.915
-135.854 -157.08099 14.932
-135.61867 -157.17366 14.924335
-135.93701 -156.94101 14.8605
-135.39799 -157.28334 15.072
-135.853 -157.08099 15.1495
-135.64301 -157.16501 15.183001
-136.021 -156.806 15.035
-135.93933 -156.86633 15.159333
-136.16501 -156.30899 15.1525
-135.44299 -157.265 15.3835
-135.116 -157.43649 15.409
-135.82401 -157.048 15.365
-135.62134 -157.17766 15.363334
-135.9435 -156.83301 15.344
-136.0285 -156.60599 15.377
-135.967 -156.744 15.466
-136.10867 -156.39833 15.354667
-136.20351 -156.151 15.419
-136.314 -155.827 15.411
-136.3625 -155.6815 15.4225
-136.43634 -155.38701 15.389667
-136.522 -155.198 15.362
-136.58434 -154.88533 15.412999
-136.6895 -154.62076 15.411499
-136.793 -154.32433 15.368
-136.81351 -154.11 15.437
-136.972 -153.64349 15.368999
-135.439 -157.261 15.749
-135.82249 -157.04599 15.5835
-135.63477 -157.15726 15.61875
-135.42599 -157.245 15.6
-135.88651 -156.884 15.5865
-136.02 -156.5965 15.6675
-135.963 -156.74001 15.613
-136.106 -156.35699 15.611
-136.186 -156.132 15.632
-136.27051 -155.888 15.631001
-136.36401 -155.569 15.6525
-136.464 -155.34399 15.611
-136.53833 -155.14 15.617
-136.62199 -154.853 15.64
-136.70599 -154.64 15.632
-136.76801 -154.36301 15.615
-136.84625 -154.1465 15.6565
-136.884 -153.85201 15.515
-136.95599 -153.66234 15.562667
-135.3775 -157.29599 15.827
-135.83299 -157.05901 15.803
-135.63901 -157.162 15.84
-135.909 -156.91049 15.878
-136.006 -156.58099 15.882
-135.95801 -156.7345 15.8275
-136.108 -156.3605 15.90325
-136.17751 -156.12201 15.852
-136.295 -155.8065 15.8445
-136.24001 -155.961 15.927
-136.35449 -155.6725 15.860001
-136.42351 -155.41049 15.85625
-136.54099 -155.10501 15.8545
-136.60449 -154.8335 15.8525
-136.69267 -154.66367 15.825
-136.755 -154.34599 15.76
-135.38101 -157.3015 16.194
-135.81 -157.033 16.237
-135.561 -157.18401 16.007999
-135.423 -157.243 16.037001
-136.01401 -156.591 16.177
-135.94501 -156.72 16.188
-136.08301 -156.33249 16.1175
-136.1965 -156.14401 16.1425
-136.284 -155.795 16.063999
-136.228 -155.9485 16.139999
-136.3645 -155.68449 16.153
-136.43333 -155.38533 16.112667
-135.298 -157.3125 16.414001
-135.782 -157.002 16.381001
-135.70399 -157.127 16.25
-135.429 -157.03101 16.427
-136.05 -156.41 16.291
