# .PCD v0.7 - Point Cloud Data file format
VERSION 0.7
FIELDS x y z
SIZE 4 4 4
TYPE F F F
COUNT 1 1 1
WIDTH 137
HEIGHT 1
VIEWPOINT -18.2321 96.2205 -1.35163 -0.354149 -0.00701479 0.0211809 0.934923
POINTS 137
DATA ascii
72.931831 96.655663 0.39316669
73.095001 97.130295 0.38099998
72.928253 96.650742 0.62524998
73.097 97.110748 0.65550005
72.922501 96.642876 0.89900005
73.065994 96.547195 0.85420001
73.0895 97.149666 0.88525009
72.925163 96.646172 1.1531667
73.090919 97.151421 1.1472501
73.187752 96.498749 1.38625
72.931122 96.654251 1.385375
73.067169 96.548828 1.3446666
73.082123 97.127251 1.4003749
73.188004 96.499001 1.576
73.258667 96.463341 1.6539999
72.935295 96.659996 1.6601
73.088707 96.565666 1.5997083
73.068665 97.109497 1.6539999
73.264252 96.470001 1.88675
72.940125 96.666504 1.8931251
73.105255 96.564659 1.8455833
73.057877 97.094994 1.88675
73.273338 96.481667 2.1616666
72.942245 96.668999 2.125
73.130653 96.563171 2.0920835
73.019501 96.971497 2.1989999
73.050003 97.109337 2.1073334
73.147003 96.446999 2.4200001
73.262329 96.415993 2.3886666
72.944748 96.672874 2.3373752
73.119568 96.558784 2.3292143
72.981499 96.920746 2.3874998
73.054001 97.163002 2.3366666
73.279755 96.49025 2.60675
72.953247 96.68325 2.6117501
73.139359 96.575211 2.6142857
72.944 96.871666 2.6619999
73.05925 97.17025 2.61375
73.283661 96.496002 2.839
72.957169 96.688835 2.8441668
73.145119 96.582878 2.869375
72.906006 96.821503 2.8730001
73.064667 97.177002 2.8470001
72.926498 96.722504 3.1199999
73.122299 96.604568 3.1051333
73.265335 96.515671 3.0386667
72.88633 96.795006 3.0839999
73.07225 97.186996 3.0805001
72.931 96.728668 3.352
73.10186 96.626831 3.3603888
73.26133 96.531837 3.3509998
72.877327 96.782997 3.3366668
73.068336 97.207161 3.3599999
72.934753 96.733246 3.58425
73.133781 96.61895 3.6002505
73.285225 96.527771 3.5934446
72.873001 96.777252 3.6115
73.087753 97.207504 3.5907502
72.942329 96.744331 3.8603334
73.141281 96.62516 3.8880951
73.293167 96.53067 3.8563335
72.874672 96.779663 3.8439999
73.093666 97.216003 3.8673334
72.944832 96.747673 4.1279998
73.133949 96.639153 4.1249504
72.878998 96.785248 4.0784998
73.091339 97.213005 4.1219997
73.134903 96.646996 4.3999052
72.912003 96.779404 4.3766003
73.072334 97.188332 4.3756661
73.122833 96.659828 4.6072502
72.914001 96.782204 4.5971999
73.036499 97.140999 4.5860004
73.04425 97.337875 4.6276245
73.080673 96.695763 4.8788667
73.257835 96.593346 4.8663335
72.927086 96.786995 4.8626666
73.01767 97.116173 4.8666668
73.038498 97.296005 4.8884997
73.096581 96.69558 5.1448331
73.26133 96.599335 5.1349998
72.931831 96.793831 5.124167
72.98867 97.077332 5.1346664
73.042328 97.300667 5.1646667
72.931831 96.839333 5.4000001
72.947998 97.024002 5.3435001
73.054665 97.364342 5.3436666
72.930878 96.863373 5.6254997
73.059998 96.753998 5.7259998
73.0495 97.311249 5.6114998
72.928215 96.849785 5.8889999
72.905502 96.864746 6.1426663
72.908127 96.868629 6.408042
73.068604 97.393204 6.3853998
73.180107 96.709778 6.6291671
72.910332 96.87149 6.6525836
73.074333 96.77401 6.6620002
73.058533 97.389664 6.6125336
73.179207 96.715408 6.8720002
72.904129 96.879623 6.8843746
73.053673 96.796669 6.8883328
73.048752 97.382378 6.9109998
73.198997 96.713997 7.1043
72.901665 96.892334 7.1585002
73.041878 96.806374 7.1081252
73.034004 97.376991 7.1197996
73.217003 96.717255 7.3487501
72.904373 96.8965 7.3816252
73.077377 96.799377 7.3579998
73.238495 96.710999 7.585
72.910126 96.904373 7.6156249
73.105736 96.791687 7.6202383
73.244499 96.718994 7.8700004
72.913498 96.909172 7.8395
73.103195 96.802094 7.8774996
73.249001 96.724998 8.052
73.250999 96.7285 8.1820002
72.921127 96.92025 8.1166248
73.104553 96.810669 8.0915556
73.254501 96.73275 8.4160004
72.923836 96.924164 8.3508339
73.103554 96.818062 8.3660555
73.259666 96.741333 8.6516657
72.927628 96.929749 8.585125
73.109337 96.825836 8.6362782
73.260002 96.742996 8.823
72.932335 96.936668 8.8618336
73.116676 96.836334 8.918417
73.270004 96.755501 8.9499998
72.890251 97.104996 8.9169998
73.116623 96.84613 9.1279373
73.268997 96.754501 9.1210003
72.94725 96.958252 9.4169998
73.128502 96.853157 9.402667
73.277336 96.765999 9.3346663
73.120247 96.860992 9.6392498
73.279251 96.769501 9.6112499
