# .PCD v0.7 - Point Cloud Data file format
VERSION 0.7
FIELDS x y z
SIZE 4 4 4
TYPE F F F
COUNT 1 1 1
WIDTH 235
HEIGHT 1
VIEWPOINT -18.2321 96.2205 -1.35163 -0.354149 -0.00701479 0.0211809 0.934923
POINTS 235
DATA ascii
-16.018999 67.511002 1.2460001
-15.374 67.523003 1.205
-15.092916 67.504585 1.1605
-14.833651 67.508255 1.17975
-14.555625 67.514374 1.1882501
-14.37695 67.523941 1.17705
-15.874583 67.435417 1.3657429
-15.579767 67.48362 1.3717
-15.390667 67.479149 1.4019333
-15.191502 67.445389 1.3683518
-14.92 67.488998 1.314
-14.681434 67.460007 1.3942001
-15.969 67.516998 1.482
-15.5945 67.505005 1.326
-15.394501 67.505005 1.4660001
-15.091763 67.506111 1.3509306
-14.868905 67.510399 1.374131
-14.55575 67.514374 1.38125
-14.344912 67.528717 1.3808191
-15.865574 67.430138 1.6188703
-15.611751 67.487129 1.6397222
-15.403768 67.486168 1.6329
-15.166226 67.460876 1.6295334
-14.922 67.495003 1.748
-14.67927 67.46283 1.5990417
-15.767 67.501999 1.608
-15.626334 67.503838 1.6915001
-15.394 67.500999 1.5880001
-15.104445 67.504768 1.6342777
-14.870682 67.511337 1.6179954
-14.5588 67.527908 1.5985
-14.359875 67.536003 1.6104584
-16.120298 67.477646 1.8718809
-15.848287 67.443428 1.8670371
-15.627598 67.494781 1.8921112
-15.340875 67.468002 1.884375
-15.209667 67.453499 1.8820834
-14.680249 67.467003 1.8581249
-15.590362 67.505394 1.8424722
-15.406417 67.50753 1.856625
-15.09352 67.508347 1.89285
-14.848131 67.518967 1.8761312
-14.558415 67.527092 1.8636667
-14.360111 67.536163 1.8556944
-16.125357 67.484009 2.134944
-15.857834 67.426575 2.1099308
-15.65186 67.494484 2.1435373
-15.371466 67.480209 2.1270001
-15.207984 67.453667 2.1278999
-14.66 67.461502 2.1253123
-15.966 67.501495 2.1364999
-15.610499 67.506241 2.1103001
-15.42673 67.510109 2.1204584
-15.099125 67.512878 2.1070623
-14.839452 67.51899 2.1260478
-14.560249 67.532875 2.105125
-14.360916 67.539566 2.1450834
-16.151133 67.487839 2.3809571
-15.854028 67.438446 2.3605833
-15.641958 67.496674 2.3779583
-15.308001 67.461502 2.3940001
-15.231 67.433586 2.3504169
-14.69075 67.475021 2.3691602
-15.901 67.5065 2.3883331
-15.619125 67.507027 2.3612499
-15.4005 67.508102 2.3637002
-15.099875 67.515839 2.3607082
-14.870563 67.524689 2.3614688
-14.545688 67.554375 2.3649375
-14.360356 67.546524 2.3942111
-16.139454 67.489311 2.6392169
-15.864482 67.440964 2.6136689
-15.685583 67.49604 2.6044168
-15.309667 67.468163 2.6360002
-15.234276 67.436478 2.60955
-14.66825 67.469826 2.5793333
-16.194 67.509506 2.5834999
-15.8675 67.502502 2.6594999
-15.627477 67.505035 2.6353042
-15.407967 67.511589 2.6400084
-15.0927 67.525307 2.6311002
-14.857029 67.532669 2.6396945
-14.561999 67.541084 2.6361668
-14.377335 67.55407 2.6271062
-16.127321 67.489594 2.8689582
-15.890866 67.453209 2.8491058
-15.617332 67.491859 2.8537776
-15.31175 67.476746 2.8790002
-15.234333 67.447166 2.8584166
-14.64 67.463684 2.859267
-16.1453 67.512306 2.8839002
-15.967 67.500999 2.984
-15.638069 67.505165 2.9065971
-15.410972 67.514435 2.9107292
-15.11185 67.525345 2.8650999
-14.854434 67.532364 2.8901083
-14.561476 67.54895 2.8850751
-14.352271 67.560646 2.8844571
-16.159071 67.496475 3.127238
-15.868362 67.455627 3.1352332
-15.313 67.480499 3.1089168
-15.236583 67.456749 3.148917
-14.642625 67.468376 3.1052501
-16.13862 67.506798 3.1291904
-15.967751 67.506248 3.09375
-15.659392 67.518227 3.1234784
-15.413437 67.529938 3.1143751
-15.106483 67.539032 3.1379416
-14.868523 67.542099 3.1344357
-14.567645 67.582207 3.1377556
-14.351936 67.565109 3.1291502
-16.113501 67.491501 3.3000002
-15.868855 67.45015 3.3923335
-15.314667 67.487328 3.3625
-15.23825 67.462128 3.391125
-14.65125 67.471581 3.3460834
-16.127653 67.509911 3.3776307
-15.9162 67.518379 3.3819749
-15.62057 67.526421 3.3587859
-15.415208 67.536705 3.3572083
-15.104913 67.546188 3.3961248
-14.846128 67.552025 3.391536
-14.582563 67.548752 3.3839376
-14.380656 67.570595 3.3661563
-15.8784 67.466148 3.6272831
-15.31625 67.4935 3.6052499
-15.23835 67.469292 3.6375666
-14.666833 67.472336 3.6338332
-16.147356 67.521278 3.6411777
-15.88535 67.5355 3.6307499
-15.593251 67.544098 3.6317501
-15.418208 67.548576 3.6484582
-15.108687 67.55069 3.6081877
-14.86079 67.557961 3.6082084
-14.599292 67.541924 3.647125
-14.369326 67.579102 3.6428058
-15.865399 67.473206 3.8825996
-15.318 67.498505 3.7505002
-15.240874 67.472748 3.8997498
-14.66675 67.469749 3.8875
-16.128201 67.52565 3.9120998
-15.8414 67.537651 3.8678002
-15.613998 67.543846 3.8676498
-15.403937 67.542557 3.8922501
-15.112208 67.562462 3.8611081
-14.861611 67.560776 3.8503613
-14.6005 67.546127 3.8893125
-14.388763 67.584442 3.8748572
-16.063999 67.491997 4.2080002
-15.8697 67.4692 4.13485
-15.69175 67.488747 4.2162499
-15.243225 67.471123 4.0987501
-14.6675 67.472244 4.11725
-16.085854 67.527748 4.1238236
-15.874695 67.529488 4.1263332
-15.59346 67.546135 4.1201906
-15.402992 67.540665 4.1369419
-15.101651 67.560204 4.13375
-14.862278 67.562447 4.1412501
-14.595667 67.556046 4.1179504
-14.376404 67.588341 4.1285782
-16.165375 67.487251 4.3979998
-15.86025 67.469376 4.3656249
-15.316 67.489502 4.4300003
-15.24889 67.469894 4.3648891
-14.661834 67.480164 4.3603334
-16.121349 67.518875 4.3541665
-15.859938 67.518814 4.3859377
-15.632258 67.534851 4.3631415
-15.411813 67.546371 4.3889375
-15.150445 67.537689 4.3670654
-14.859084 67.550117 4.3849168
-14.598475 67.539467 4.358325
-14.367859 67.575798 4.372067
-16.127899 67.478699 4.6607003
-15.865761 67.464806 4.6544881
-15.322167 67.476173 4.6129999
-15.215562 67.476562 4.6686459
-14.66095 67.489952 4.6192002
-16.158716 67.518372 4.6284881
-15.864917 67.523499 4.6038337
-15.651535 67.545891 4.6443214
-15.391321 67.54187 4.6198568
-15.104625 67.54583 4.6372914
-14.879438 67.561691 4.6304059
-14.590378 67.533669 4.6277671
-14.364578 67.591423 4.5999641
-16.137781 67.460945 4.8607116
-15.90275 67.486755 4.8185
-15.666167 67.483086 4.9041667
-15.370501 67.475754 4.8449998
-15.116195 67.479469 4.932528
-14.792791 67.492004 4.8607502
-14.5285 67.490494 4.7585001
-14.387067 67.494934 4.8775001
-16.094521 67.516548 4.8893542
-15.884987 67.530525 4.885181
-15.615306 67.536018 4.8735976
-15.35669 67.537354 4.8489881
-15.132133 67.530273 4.8824902
-14.889635 67.556274 4.9194336
-14.650095 67.55603 4.8508124
-14.361224 67.56469 4.8467331
-15.616068 67.474518 5.0942502
-15.464 67.468002 5.0289998
-15.037666 67.479172 5.1063333
-14.907104 67.48848 5.1477089
-15.859185 67.549225 5.1383796
-15.568084 67.529419 5.1327505
-15.354584 67.538589 5.1376772
-15.104166 67.542984 5.1076455
-14.833291 67.548111 5.1234031
-14.63015 67.577194 5.1290998
-14.378824 67.560318 5.1362257
-15.640854 67.476677 5.3452187
-15.447668 67.468002 5.447
-15.072166 67.485664 5.4316669
-14.849125 67.491997 5.3119583
-14.643667 67.496666 5.4223337
-15.597355 67.516838 5.3913336
-15.352051 67.541214 5.3711858
-15.110916 67.542793 5.3542914
-14.85751 67.544685 5.3701668
-14.6101 67.550697 5.3664002
-15.671 67.494003 5.5279999
-15.36075 67.471497 5.6123338
-15.214854 67.476105 5.6273127
-15.602487 67.533897 5.645555
-15.389035 67.521164 5.6254883
-15.104626 67.548622 5.6145
-14.866279 67.57061 5.6459999
-15.409333 67.467888 5.8125553
-15.0975 67.488495 5.7995
-15.324722 67.548836 5.8799591
-15.11025 67.544792 5.852375
