# .PCD v0.7 - Point Cloud Data file format
VERSION 0.7
FIELDS x y z
SIZE 4 4 4
TYPE F F F
COUNT 1 1 1
WIDTH 204
HEIGHT 1
VIEWPOINT -18.2321 96.2205 -1.35163 -0.354149 -0.00701479 0.0211809 0.934923
POINTS 204
DATA ascii
-5.612195 -47.138245 0.42892379
-5.4870005 -47.002998 0.41083333
-5.5159998 -46.984001 0.41316667
-5.3501019 -46.887524 0.41776848
-5.191 -46.751999 0.389
-5.1093664 -46.599434 0.42190003
-4.9809165 -46.356419 0.40108335
-4.858439 -46.09827 0.40212685
-4.6600003 -46.014759 0.43333337
-4.7820001 -45.997498 0.463
-4.6190004 -45.850792 0.41270831
-4.5159998 -45.626167 0.426
-4.4807501 -45.604748 0.45775002
-5.7456665 -47.502888 0.64066666
-5.863276 -47.456852 0.61984444
-5.594861 -47.088142 0.59838891
-5.5252113 -46.976547 0.64986664
-5.4116778 -46.950371 0.63364446
-5.2553887 -46.741501 0.60583329
-5.135303 -46.61639 0.6262539
-5.0349998 -46.445 0.63924998
-4.9793334 -46.342003 0.58783334
-4.8721256 -46.103542 0.63150001
-4.7330236 -46.014442 0.60545242
-4.8246779 -45.97472 0.63926667
-4.6184592 -45.835072 0.6269111
-4.526 -45.644749 0.54449999
-4.4707999 -45.628605 0.56080002
-4.4049997 -45.476501 0.54299998
-6.0487227 -47.363892 0.85163897
-5.8496013 -47.452034 0.87135148
-5.6357036 -47.144001 0.85411114
-5.5295835 -46.959671 0.89750004
-5.397512 -46.931469 0.88790083
-5.2544808 -46.733593 0.85196298
-5.1394839 -46.615269 0.86217088
-4.978056 -46.329998 0.85841662
-4.8577018 -46.076775 0.88226193
-4.7290502 -46.00655 0.85529995
-4.8213754 -45.952644 0.90604168
-4.6265249 -45.801552 0.86617076
-4.5339999 -45.641998 0.9835
-5.8865929 -47.427505 1.1138608
-5.6341114 -47.132393 1.1023333
-5.5280557 -46.947002 1.1448889
-5.4166193 -46.927521 1.1205477
-5.2557783 -46.715744 1.1218572
-5.1474872 -46.61174 1.1382625
-5.0327778 -46.448109 1.1393889
-4.9758892 -46.306561 1.1290556
-4.8629589 -46.056858 1.1360835
-4.7150002 -46.0065 1.08875
-4.8120642 -45.945793 1.1023645
-4.6435738 -45.823372 1.1368643
-4.5334997 -45.640747 1.0239999
-4.4701667 -45.600834 1.0233333
-4.3979998 -45.401001 1.003
-5.865015 -47.426914 1.3593384
-5.6421714 -47.114826 1.3738444
-5.5268335 -46.936085 1.3921666
-5.3946114 -46.906956 1.3701572
-5.251792 -46.707958 1.3925
-5.1455617 -46.601883 1.3701463
-5.0348754 -46.440685 1.379125
-4.9747334 -46.296734 1.3284667
-4.8804007 -46.088936 1.3754001
-4.8464999 -45.935612 1.349389
-4.6544032 -45.854027 1.3926799
-4.5267501 -45.574501 1.4615
-4.46 -45.550499 1.4645
-5.8749857 -47.411068 1.6200135
-5.6397443 -47.108028 1.6475888
-5.524869 -46.93029 1.5943334
-5.4039493 -46.904373 1.6272236
-5.2536664 -46.713379 1.6317
-5.1613731 -46.591564 1.6392659
-5.0388999 -46.413933 1.6293666
-4.971889 -46.27478 1.6432223
-4.879467 -46.080006 1.6214001
-4.6539998 -46.004002 1.729
-4.8388338 -45.935417 1.5889167
-4.6781039 -45.872349 1.6285951
-4.526 -45.568497 1.51
-4.4809999 -45.603001 1.5140001
-5.8530045 -47.410042 1.8569012
-5.6245337 -47.108986 1.8767809
-5.5247226 -46.920444 1.853889
-5.4195681 -46.903206 1.8745191
-5.2667503 -46.707832 1.8794167
-5.1716666 -46.602116 1.9068155
-5.0759797 -46.443909 1.8655834
-4.9708338 -46.264168 1.8865
-4.8840694 -46.065308 1.8474026
-4.6539998 -46.005001 1.988
-4.8372917 -45.922028 1.8575974
-4.6606231 -45.874313 1.8787887
-4.5685 -45.614223 1.9251112
-4.4726667 -45.576004 1.9181666
-5.8584995 -47.392952 2.116899
-5.6233053 -47.099911 2.1274762
-5.5284266 -46.906178 2.1267734
-5.4194131 -46.891651 2.1167142
-5.2507 -46.677601 2.1572001
-5.1545777 -46.554955 2.089489
-5.0617456 -46.406532 2.1057708
-4.9697495 -46.255249 2.0487499
-4.9025006 -46.088837 2.1337779
-4.6550002 -46.013 2.2149999
-4.8247862 -45.912312 2.1519525
-4.669704 -45.904633 2.0905001
-4.6560836 -45.730042 2.0938749
-5.8441772 -47.388599 2.3702617
-5.6195002 -47.085503 2.3932917
-5.5191336 -46.904137 2.3703334
-5.4337397 -46.886635 2.366045
-5.2124667 -46.600456 2.3357003
-5.0721674 -46.393604 2.3651502
-4.9109063 -46.127773 2.3684897
-4.6539998 -46.007999 2.473
-4.8147502 -45.921421 2.3876636
-4.6448612 -45.862225 2.3666668
-4.6049919 -45.666874 2.3848612
-4.4614167 -45.542583 2.3969998
-6.112946 -47.283287 2.6387408
-5.844245 -47.367638 2.6281583
-6.2176666 -47.243 2.6859999
-5.6168885 -47.06514 2.6410553
-5.5188127 -46.894833 2.5973959
-5.4011669 -46.844215 2.6412323
-5.2305374 -46.62598 2.6529074
-5.0833626 -46.402283 2.6379085
-4.9204164 -46.141613 2.6146805
-4.8238592 -45.91943 2.6260469
-4.6902404 -45.844112 2.6383801
-4.6549168 -45.704628 2.6417708
-6.1525245 -47.301491 2.899868
-5.8683515 -47.356911 2.8682225
-5.6737084 -47.124626 2.8514168
-5.5445004 -46.919018 2.8837905
-5.4321313 -46.851345 2.855988
-5.2863889 -46.641087 2.858361
-5.2074723 -46.543865 2.8497779
-5.0943031 -46.378101 2.8512738
-5.0267501 -46.241249 2.8874998
-4.92311 -46.113674 2.8562102
-4.7871475 -45.90934 2.9100857
-4.6148534 -45.662731 2.8702037
-4.4720001 -45.528999 2.8870001
-4.5009999 -45.485001 2.836
-5.8977718 -47.33577 3.1150556
-5.6568813 -47.048523 3.1420186
-5.5493126 -46.896835 3.1019897
-5.4283333 -46.833862 3.1367226
-5.2775669 -46.633636 3.1303334
-5.1950002 -46.505001 3.006
-5.123817 -46.42268 3.1234276
-5.0332222 -46.234776 3.1397781
-4.9405365 -46.128799 3.1248074
-4.7966776 -45.922558 3.1403334
-4.6537333 -45.696213 3.1025751
-5.8844523 -47.329712 3.3590112
-5.6530561 -47.028721 3.3951666
-5.5331111 -46.860294 3.3548889
-5.4109631 -46.808956 3.363826
-5.2824335 -46.615494 3.3638334
-5.1278815 -46.406677 3.3633173
-5.0305839 -46.215164 3.3911667
-4.9579864 -46.142929 3.4019692
-4.810009 -45.920105 3.3771396
-4.6476068 -45.684662 3.3548813
-5.8958879 -47.316147 3.6364989
-5.6379924 -47.025974 3.6359684
-5.6102505 -46.919514 3.6101389
-5.424315 -46.801575 3.6261477
-5.2744622 -46.600342 3.6411216
-5.1229687 -46.389297 3.6357646
-5.0285001 -46.195389 3.5987778
-4.9484048 -46.11182 3.6289642
-4.8134995 -45.911228 3.6367354
-4.6619124 -45.675983 3.6451032
-5.6325665 -47.018303 3.8817668
-5.611403 -46.906666 3.8546803
-5.4378099 -46.796947 3.8581834
-5.3396153 -46.633068 3.8971338
-5.28725 -46.459999 3.9499998
-5.1585369 -46.3797 3.8715923
-5.0447335 -46.173 3.8661332
-4.9685559 -46.135807 3.8420417
-5.006 -45.995998 3.9349999
-4.8587546 -45.895306 3.88396
-4.7097502 -45.877331 3.9394169
-4.6486249 -45.605434 3.8607233
-5.8829484 -47.302334 4.1128049
-5.3845 -47.026001 4.073
-5.5891252 -46.867126 4.1287303
-5.4233651 -46.910885 4.1540637
-4.7965002 -46.021999 4.0065002
-4.9082742 -45.821808 4.0361552
-4.7052498 -45.946251 4.0432501
-5.8467298 -47.301746 4.3623004
-5.3864169 -47.0485 4.3994999
-5.5857186 -46.87368 4.3660421
-5.4194627 -46.903744 4.3615189
-5.860055 -47.285889 4.6171174
