# .PCD v0.7 - Point Cloud Data file format
VERSION 0.7
FIELDS x y z
SIZE 4 4 4
TYPE F F F
COUNT 1 1 1
WIDTH 105
HEIGHT 1
VIEWPOINT -18.2321 96.2205 -1.35163 -0.354149 -0.00701479 0.0211809 0.934923
POINTS 105
DATA ascii
-34.502499 38.029499 0.69066668
-34.454159 38.151608 0.65039629
-33.626125 38.218735 0.63283515
-34.361752 38.362595 0.649194
-34.2869 38.558128 0.63414448
-34.502335 38.029503 0.90583336
-34.45697 38.153114 0.89804739
-34.364113 38.365295 0.89829636
-34.283543 38.576393 0.86403102
-34.50478 38.031891 1.1505556
-34.471336 38.123432 1.133947
-34.375645 38.348507 1.1367435
-34.290527 38.567295 1.1350334
-34.504669 38.031834 1.4076667
-34.479721 38.105919 1.3969722
-34.36858 38.372524 1.3793516
-34.286293 38.588856 1.380162
-34.205112 38.732567 1.3370384
-34.506248 38.033249 1.5780001
-34.480583 38.098869 1.6500138
-34.383766 38.348671 1.6495783
-34.29208 38.574375 1.6373
-34.230042 38.742344 1.6484646
-34.474136 38.135986 1.9078356
-34.390427 38.344208 1.8817527
-34.286671 38.601551 1.8822286
-34.237999 38.731499 1.86725
-34.228432 38.755287 1.9498572
-34.384346 38.365059 2.1344175
-34.292469 38.590424 2.1505001
-34.232826 38.74889 2.1037292
-34.049824 39.212425 2.1629667
-34.402138 38.334465 2.2969334
-34.278889 38.586166 2.3203335
-34.230003 38.749004 2.3170002
-34.235748 38.755623 2.2509999
-34.390236 38.374516 2.6924584
-34.291752 38.611 2.6938751
-34.247002 38.745998 2.7442002
-34.240166 38.759834 2.6496668
-34.026585 39.299416 2.6904168
-33.904888 39.601028 2.6620002
-33.814503 39.893703 2.7004526
-33.764832 40.0485 2.6655002
-33.710045 40.17746 2.6783268
-33.679001 40.271751 2.6624999
-34.500999 38.126999 2.994
-34.478821 38.131035 2.851481
-34.405342 38.353855 2.8736737
-34.295971 38.614628 2.8953907
-34.230907 38.792519 2.8641145
-34.025543 39.312164 2.8457432
-33.978874 39.425507 2.8353841
-33.904564 39.626808 2.8615127
-33.821907 39.875988 2.8721294
-33.767563 40.053406 2.8508797
-33.719292 40.182419 2.8959167
-33.687534 40.268589 2.8476667
-34.473778 38.196045 3.122
-34.396973 38.388638 3.1178651
-34.286366 38.653797 3.1263833
-34.199471 38.802334 3.1019166
-34.054722 39.181004 3.1642778
-34.029503 39.30703 3.1375268
-33.975586 39.439625 3.1245835
-33.903503 39.650513 3.1250539
-33.811245 39.924133 3.1328402
-33.77478 40.052792 3.1456985
-33.72607 40.188828 3.1536548
-33.688499 40.273502 3.0998335
-34.408897 38.367374 3.3617363
-34.303024 38.620274 3.3749726
-34.257004 38.750832 3.3523335
-34.225185 38.820599 3.3505943
-34.045834 39.171055 3.3025
-34.030277 39.317093 3.4185371
-33.97242 39.470085 3.4063334
-33.909256 39.642418 3.3611667
-33.827469 39.882626 3.3761945
-33.774075 40.072063 3.4242976
-33.726433 40.193367 3.348
-33.694252 40.280895 3.3643124
-34.41053 38.383327 3.6173019
-34.309181 38.621407 3.6194873
-34.260269 38.756969 3.6016335
-34.233387 38.831055 3.6515281
-34.063541 39.242043 3.5956669
-34.02676 39.341537 3.6505582
-33.976624 39.474625 3.5982084
-33.924221 39.62093 3.6382902
-33.847145 39.841881 3.6353335
-33.774712 40.086449 3.6694667
-33.727867 40.20874 3.5801849
-33.670834 40.293831 3.6069169
-34.264168 38.758835 3.7516665
-34.238419 38.83625 3.9033334
-34.066502 39.244976 3.8540001
-34.01704 39.385429 3.906764
-33.987766 39.458874 3.841542
-33.923931 39.639088 3.9002147
-33.847858 39.863556 3.8795135
-33.77496 40.102032 3.8981528
-33.718376 40.248581 3.8017497
-33.693951 40.309036 3.8851833
-33.933289 39.631016 4.1009312
