# .PCD v0.7 - Point Cloud Data file format
VERSION 0.7
FIELDS x y z
SIZE 4 4 4
TYPE F F F
COUNT 1 1 1
WIDTH 77
HEIGHT 1
VIEWPOINT -18.2321 96.2205 -1.35163 -0.354149 -0.00701479 0.0211809 0.934923
POINTS 77
DATA ascii
-53.002998 14.956 22.617001
-52.953751 14.95075 22.707001
-53.289501 15.098 22.7395
-53.146202 15.113101 22.7451
-51.322666 15.215834 22.735001
-51.153332 15.17789 22.741278
-50.849888 15.163388 22.740778
-50.630585 15.111945 22.743307
-50.461334 15.133667 22.746334
-52.255001 15.499 22.719999
-51.761333 15.347667 22.729
-51.608891 15.385918 22.726807
-51.393528 15.344083 22.727751
-51.119499 15.32325 22.729874
-50.903336 15.406944 22.724724
-50.617996 15.429417 22.726833
-50.409851 15.405812 22.733521
-52.825752 15.709 22.724251
-52.620914 15.694943 22.708807
-52.353004 15.621533 22.717398
-52.189503 15.629001 22.713831
-51.785 15.712 22.701
-51.664375 15.654 22.705999
-51.370464 15.688133 22.706833
-51.110954 15.632857 22.711142
-50.856197 15.623334 22.712891
-50.633667 15.622833 22.715445
-50.405251 15.591125 22.721001
-50.249249 15.5465 22.73175
-52.783001 15.8335 22.6905
-52.6422 15.8688 22.691998
-52.370419 15.865001 22.696083
-52.112034 15.902618 22.696188
-51.764999 15.764999 22.695499
-51.618286 15.856977 22.694523
-51.378998 15.851062 22.696999
-52.778 16.177 22.719
-52.601234 16.1227 22.685665
-52.364998 16.124502 22.684938
-50.887753 14.696362 22.939362
-50.619144 14.657595 22.964403
-50.462502 14.608833 22.9725
-53.013 14.997 22.75
-51.620022 14.918571 22.907547
-51.354309 14.874167 22.929029
-51.135788 14.877312 22.936916
-50.876522 14.878564 22.902395
-50.631702 14.874222 22.824816
-50.387768 14.86638 22.873472
-53.058498 15.233 22.813
-52.905884 15.12184 22.79508
-52.645416 15.14385 22.843567
-52.255501 15.1555 22.892
-52.128647 15.114563 22.900562
-51.893105 15.129146 22.928436
-51.629429 15.124952 22.893049
-51.393738 15.103476 22.859808
-51.128597 15.047499 22.812901
-50.961334 15.029167 22.781666
-50.330956 15.083199 22.832188
-50.248001 15.122 22.933001
-53.334709 15.368208 22.820042
-53.150017 15.365441 22.842428
-52.92403 15.364866 22.871765
-52.716301 15.347799 22.8932
-52.297539 15.303041 22.931376
-52.106171 15.310666 22.913332
-51.89333 15.280334 22.860001
-51.650002 15.2535 22.761499
-50.268169 15.307777 22.785833
-50.168598 15.386559 22.859245
-53.322502 15.6168 22.843
-53.165951 15.634334 22.886251
-52.835751 15.608251 22.855751
-52.600498 15.5595 22.80125
-50.126411 15.535202 22.864988
-53.203251 15.890916 22.838251
