# .PCD v0.7 - Point Cloud Data file format
VERSION 0.7
FIELDS x y z
SIZE 4 4 4
TYPE F F F
COUNT 1 1 1
WIDTH 1005
HEIGHT 1
VIEWPOINT -18.2321 96.2205 -1.35163 -0.354149 -0.00701479 0.0211809 0.934923
POINTS 1005
DATA ascii
-15.108251 84.134003 22.613998
-14.87269 84.14579 22.614689
-14.69025 84.146164 22.598082
-15.028 84.227005 22.752666
-14.858 84.2295 22.751499
-14.7345 84.246002 22.755501
-15.13 84.251999 22.806
-14.864667 84.279663 22.831499
-14.662666 84.288666 22.829666
-15.101777 84.431 23.084196
-14.929 84.456169 23.120834
-14.6705 84.461998 23.099701
-15.065 84.523003 23.24
-14.848166 84.530174 23.223333
-14.6675 84.5355 23.233
-21.875202 84.372604 23.426502
-21.6145 84.347488 23.356644
-21.400415 84.388496 23.413084
-15.080667 84.596588 23.355875
-14.902444 84.60453 23.358917
-14.6483 84.624863 23.372601
-14.33 84.686996 23.43
-28.58 84.320999 23.735001
-28.344889 84.272949 23.652445
-28.1425 84.283997 23.651001
-22.107 84.451126 23.587124
-21.879766 84.467003 23.577633
-21.612999 84.459 23.53825
-21.412498 84.473755 23.54925
-22.140999 84.550499 23.7425
-21.806126 84.552002 23.708
-21.6024 84.543602 23.673
-21.393583 84.546165 23.66925
-21.171001 84.565498 23.6875
-16.567333 84.70533 23.612501
-15.082 84.717751 23.55275
-14.945499 84.703499 23.5245
-14.68525 84.72525 23.542999
-14.400499 84.744629 23.546625
-16.5495 84.764999 23.7185
-16.455999 84.774002 23.705999
-15.138 84.763504 23.629
-14.823222 84.803337 23.673334
-14.598762 84.813004 23.664167
-14.40125 84.83963 23.697001
-14.235001 84.842247 23.686501
-28.757 84.457001 23.951
-28.596582 84.420845 23.88825
-28.377407 84.40313 23.856224
-28.142889 84.403023 23.842806
-22.368 84.682999 23.938
-22.126431 84.645393 23.880962
-21.896391 84.658058 23.879141
-21.652418 84.674339 23.887833
-21.4097 84.669189 23.8605
-21.117126 84.664375 23.852375
-21.125 84.757004 23.993
-16.7675 84.921494 23.973999
-16.624571 84.862976 23.867498
-16.466999 84.827499 23.8165
-15.090112 84.908394 23.857416
-14.902835 84.916664 23.860083
-14.663666 84.940834 23.879787
-14.350833 84.926834 23.835001
-14.200333 84.942337 23.846668
-15.271 85.001999 23.98
-14.542 85.016998 23.993999
-14.365167 85.006004 23.9655
-14.151 85.025337 23.963667
-28.839001 84.494003 24.021
-28.573 84.496002 24.035
-28.377001 84.498001 24.011
-28.88525 84.57737 24.16675
-28.645742 84.570175 24.132111
-28.387695 84.559586 24.102722
-28.141283 84.587349 24.128286
-27.937668 84.59623 24.129557
-22.379999 84.723999 24.014
-22.098499 84.741501 24.028999
-21.941999 84.734001 24.014
-22.29925 84.782249 24.115749
-22.147362 84.813339 24.144722
-21.840786 84.833794 24.156071
-21.62781 84.831314 24.13776
-21.365189 84.814003 24.090813
-21.1455 84.87516 24.164167
-16.837502 84.974503 24.0555
-16.651499 84.960503 24.038168
-16.4095 84.972 24.038502
-16.837002 85.053909 24.185902
-16.591167 85.032333 24.151833
-16.412666 85.04142 24.157335
-15.27375 85.098495 24.179501
-15.131517 85.073265 24.121536
-14.866626 85.092339 24.141895
-14.604142 85.112953 24.151096
-14.371062 85.099686 24.11829
-14.076 85.149506 24.16
-29.252001 84.740997 24.396
-29.073917 84.697464 24.358458
-28.888 84.68325 24.31275
-28.6439 84.697304 24.334202
-28.361443 84.691109 24.30628
-28.104336 84.696503 24.302666
-29.181999 84.762253 24.468
-28.858332 84.774834 24.460333
-28.618 84.766495 24.438999
-28.395752 84.7845 24.452751
-28.143124 84.775253 24.425249
-27.822001 84.790001 24.427
-22.334333 84.93058 24.351751
-22.154699 84.950394 24.366199
-21.875113 84.963341 24.362333
-21.621601 84.943802 24.317635
-21.406 84.947334 24.304834
-21.159 84.972 24.326334
-20.957001 84.972 24.310501
-22.394001 85.014 24.4925
-22.023001 85.036003 24.495001
-21.907501 85.024498 24.46825
-21.632166 85.025337 24.451111
-21.443001 85.014 24.42
-21.13839 85.057167 24.452555
-20.940332 85.063835 24.445833
-16.86031 85.180099 24.391834
-16.609798 85.156998 24.345301
-16.43495 85.191399 24.37715
-15.313 85.223 24.368
-15.133 85.205276 24.335001
-14.8485 85.199249 24.318499
-14.545 85.218498 24.3325
-14.435 85.217003 24.314001
-14.144 85.231003 24.294001
-16.554001 85.255997 24.493999
-15.3815 85.258499 24.4475
-15.159334 85.264999 24.434502
-14.894666 85.289001 24.448832
-14.651899 85.296593 24.444302
-14.3165 85.304497 24.4335
-14.1636 85.287796 24.396399
-29.35062 84.879692 24.662998
-29.119875 84.853935 24.616688
-28.877499 84.869629 24.622437
-28.626879 84.893806 24.645191
-28.363083 84.884499 24.627708
-28.129286 84.886574 24.610928
-27.869917 84.90567 24.613836
-27.743 84.948502 24.686001
-22.369583 85.11042 24.640043
-22.105249 85.127831 24.651054
-21.868313 85.135742 24.642061
-21.611786 85.11779 24.598524
-21.401667 85.156914 24.642166
-21.124699 85.131599 24.5898
-20.934334 85.172058 24.637777
-16.852083 85.321915 24.620667
-16.623835 85.33445 24.62911
-16.432375 85.316872 24.59025
-15.3306 85.375305 24.6255
-15.115417 85.378754 24.612833
-14.854357 85.394669 24.626286
-14.634375 85.412872 24.632624
-14.408417 85.443832 24.672001
-14.152333 85.426414 24.624834
-13.858 85.488998 24.7005
-14.092751 85.515755 24.714249
-29.583752 84.968002 24.816502
-29.380333 84.965668 24.801332
-29.07 84.959 24.763
-28.894335 84.977829 24.788502
-28.637501 84.963997 24.757
-28.339167 84.989998 24.785166
-28.143999 84.985001 24.761999
-29.570501 85.038826 24.933334
-29.371099 85.0317 24.9139
-29.123402 85.037598 24.9006
-28.873602 85.056297 24.9118
-28.613419 85.052498 24.903418
-28.378002 85.050705 24.894901
-28.136103 85.065506 24.888201
-27.876999 85.086502 24.898502
-27.715752 85.093246 24.918335
-22.541668 85.240997 24.865667
-22.33025 85.219002 24.81225
-22.085499 85.220245 24.804001
-21.837667 85.226997 24.785002
-21.653 85.2145 24.757999
-21.149168 85.237389 24.756445
-22.5695 85.307495 24.970001
-22.4 85.299995 24.946377
-22.141027 85.301476 24.934
-21.8993 85.300003 24.900799
-21.634073 85.301094 24.891357
-21.395334 85.314835 24.893166
-21.144213 85.329216 24.905573
-20.868334 85.358002 24.925501
-20.716 85.397003 24.954
-16.837999 85.410004 24.767
-16.664125 85.44487 24.80525
-15.33 85.4785 24.789501
-15.147334 85.481773 24.781334
-14.96 85.474503 24.75
-14.506 85.497002 24.768
-16.859123 85.531754 24.9415
-16.6415 85.524246 24.924999
-15.502 85.565002 24.933001
-15.353 85.546371 24.903126
-15.109167 85.542328 24.89975
-14.841166 85.554993 24.866165
-14.5861 85.543297 24.835102
-14.362501 85.56736 24.860929
-14.12781 85.588646 24.88612
-13.86575 85.587563 24.866999
-29.631166 85.128838 25.078835
-29.347418 85.152748 25.104584
-29.120543 85.184692 25.135437
-28.849382 85.173645 25.100237
-28.602791 85.186371 25.114624
-28.367609 85.19194 25.12475
-28.215248 85.143501 25.030251
-27.873001 85.218506 25.1026
-27.7145 85.204498 25.077
-28.9035 85.255753 25.243752
-28.5935 85.265503 25.238251
-27.957001 85.294495 25.2435
-27.658001 85.295998 25.226999
-22.527 85.422668 25.147001
-22.360813 85.420822 25.136875
-22.128416 85.428673 25.142195
-21.887749 85.417999 25.095709
-21.632334 85.435333 25.103914
-21.360001 85.440086 25.099419
-21.123083 85.432671 25.078751
-20.892599 85.454697 25.085102
-20.677999 85.476997 25.101999
-21.598335 85.527008 25.248669
-21.106001 85.517159 25.210167
-20.9135 85.551003 25.2055
-20.70525 85.531502 25.1695
-16.911249 85.627083 25.124001
-16.720001 85.599998 25.068501
-15.451 85.605003 25.007
-15.0735 85.733994 25.172501
-14.841666 85.694008 25.095335
-14.603875 85.709747 25.112751
-14.355934 85.701538 25.084833
-14.120799 85.708008 25.0784
-13.8605 85.695747 25.038126
-13.703334 85.729668 25.068666
-15.047 85.775002 25.246
-14.814751 85.76725 25.21925
-14.615 85.793999 25.24
-14.379333 85.779335 25.210333
-14.1546 85.791405 25.2124
-13.9045 85.77037 25.161375
-13.707251 85.778748 25.161999
-29.531 85.234497 25.253
-29.389751 85.245255 25.258915
-29.826834 85.319 25.393167
-29.633469 85.320107 25.377111
-29.376102 85.342407 25.403599
-29.114248 85.342369 25.384916
-28.870998 85.352203 25.390701
-28.669111 85.346397 25.372778
-28.3985 85.343994 25.361334
-28.1415 85.356247 25.331501
-27.850836 85.383507 25.382751
-27.63961 85.388336 25.370779
-22.350885 85.576767 25.385099
-22.137144 85.586716 25.391285
-21.869938 85.583748 25.359627
-21.639359 85.60936 25.389143
-21.394312 85.628937 25.388937
-21.136309 85.608864 25.357286
-20.879499 85.664001 25.409126
-20.644388 85.645279 25.36689
-15.508 85.906998 25.490999
-15.378905 85.876663 25.423141
-15.142249 85.860924 25.390417
-14.879857 85.854576 25.367069
-14.610249 85.876244 25.375063
-14.38975 85.872253 25.350084
-14.136271 85.903961 25.38452
-13.897278 85.886864 25.350752
-13.670958 85.906891 25.363417
-29.817251 85.431999 25.578749
-29.609249 85.459747 25.592375
-29.381769 85.455429 25.582636
-29.085873 85.470367 25.593376
-28.882833 85.458344 25.561958
-28.514 85.469498 25.5595
-28.401667 85.466164 25.558664
-28.108999 85.458 25.504
-27.559 85.495499 25.532001
-27.461 85.490997 25.527
-29.806999 85.541 25.743999
-29.634832 85.534508 25.716833
-29.387251 85.531754 25.698
-29.13089 85.546562 25.710669
-28.838999 85.547592 25.7043
-28.632666 85.55233 25.689169
-28.342722 85.547386 25.671835
-28.0944 85.546097 25.643398
-27.88525 85.521248 25.5895
-27.650751 85.558372 25.640249
-27.4575 85.578499 25.63925
-22.289501 85.688995 25.5625
-22.123669 85.718178 25.594732
-21.88525 85.705376 25.554001
-21.644999 85.707672 25.547501
-21.375 85.724998 25.542
-21.147499 85.7145 25.527
-22.130001 85.7995 25.713501
-21.89525 85.770004 25.658501
-21.644669 85.791748 25.682165
-21.341751 85.782501 25.641251
-21.116901 85.797997 25.646503
-20.875834 85.813713 25.644543
-20.642916 85.796196 25.611082
-17.380167 85.978828 25.705833
-17.139 85.971161 25.670334
-16.951 85.962997 25.656
-15.517 85.954002 25.569
-15.392334 85.965492 25.575998
-15.153667 85.963661 25.556335
-14.926501 85.968994 25.555666
-14.65275 85.981003 25.552
-14.38775 85.9795 25.53125
-14.032 85.987 25.513
-13.973 85.973999 25.504999
-17.053001 86.015503 25.743
-16.961 86.010002 25.737
-16.732334 86.024338 25.737
-15.313499 86.036499 25.700001
-15.1375 86.023003 25.654499
-14.83125 86.047165 25.674416
-14.619999 86.0625 25.679167
-14.35225 86.043251 25.634165
-14.122666 86.023994 25.579332
-13.952 86.040001 25.584999
-13.742 86.085999 25.676001
-29.786499 85.582504 25.813999
-29.597126 85.613747 25.842627
-29.370834 85.627663 25.856501
-29.128166 85.644447 25.875959
-28.880686 85.667999 25.893188
-28.649668 85.668999 25.879915
-28.391712 85.646645 25.836073
-28.159 85.606003 25.753
-27.623833 85.671036 25.81175
-27.431665 85.668999 25.802332
-28.577 85.750504 25.951
-27.597 85.756744 25.94825
-27.4025 85.763 25.93375
-22.073299 85.882401 25.841999
-21.861094 85.893135 25.858574
-21.637499 85.917664 25.886168
-21.379877 85.914497 25.850143
-21.160799 85.941696 25.870001
-20.833633 85.934036 25.839499
-20.672749 85.945999 25.848623
-20.459 85.943497 25.838249
-21.058001 86.007004 25.978001
-20.834999 86.018669 25.985666
-20.683001 86.024002 25.987
-20.404999 86.053497 25.989
-17.549667 86.048668 25.842335
-17.378792 86.07827 25.873852
-17.158583 86.065918 25.82358
-16.785 86.065002 25.804001
-16.66975 86.109756 25.8645
-15.619937 86.163185 25.890375
-15.43475 86.197502 25.939377
-15.159333 86.215172 25.952166
-14.860333 86.220825 25.949499
-14.605 86.242996 25.9685
-14.312667 86.215782 25.909555
-14.103223 86.214195 25.881918
-14.455 86.25 25.969
-13.9575 86.2575 25.943001
-13.559999 86.2855 25.965
-29.007 85.747002 26.025
-28.07 85.730003 26.121
-29.32 85.768501 26.091499
-29.126999 85.804504 26.125
-28.861435 85.796501 26.103434
-28.644251 85.798248 26.090752
-28.309999 85.851753 26.147999
-28.132 85.833 26.108196
-27.895 85.849243 26.130501
-27.581335 85.826332 26.058167
-27.399 85.807495 26.011501
-21.857 85.983994 26.02
-21.9 86.028999 26.083
-21.62431 86.050697 26.100904
-21.356443 86.079788 26.110113
-21.09025 86.086121 26.109001
-20.860201 86.099731 26.112701
-20.639416 86.121002 26.127335
-20.39736 86.13623 26.139193
-17.852499 86.223167 26.135336
-17.704 86.201004 26.08025
-17.316 86.207001 26.066
-16.667 86.211334 26.035334
-18.027 86.289001 26.243
-17.8785 86.276497 26.205
-17.709 86.303001 26.24
-16.818249 86.288002 26.155916
-16.651333 86.283836 26.150833
-15.7945 86.280502 26.102249
-15.625191 86.323189 26.14957
-15.364809 86.302528 26.098904
-15.109917 86.334908 26.145472
-14.865277 86.349724 26.142166
-14.620687 86.35244 26.143126
-14.361501 86.354256 26.128439
-14.114056 86.353119 26.108114
-13.879201 86.384392 26.1492
-13.65623 86.387543 26.137835
-13.386168 86.403809 26.143452
-31.099751 85.887756 26.427999
-30.898111 85.864281 26.360331
-30.688416 85.915009 26.406418
-29.158001 85.986 26.389999
-27.398499 85.999001 26.334999
-30.712 86.000999 26.499001
-29.576 86.015999 26.474001
-28.931999 86.009506 26.425499
-27.888334 86.081825 26.449333
-27.632002 86.061005 26.431501
-27.378 86.058006 26.42425
-21.108 86.205002 26.308001
-20.868002 86.198158 26.276499
-20.63525 86.213005 26.2745
-21.002001 86.266998 26.386
-20.879999 86.282997 26.414
-20.63875 86.290077 26.395082
-18.072001 86.359497 26.3605
-17.905333 86.420662 26.442335
-17.639626 86.419006 26.421125
-17.3792 86.418694 26.411999
-17.146999 86.468498 26.480499
-16.846582 86.427162 26.387583
-15.667875 86.442871 26.344561
-15.381 86.435097 26.335102
-15.115534 86.444199 26.311066
-14.917667 86.459717 26.320501
-14.624374 86.471542 26.330292
-14.38575 86.45787 26.295876
-14.107167 86.472664 26.300001
-13.89925 86.467751 26.2845
-13.665001 86.486 26.300833
-13.472334 86.464005 26.253002
-15.875 86.533997 26.496
-15.60875 86.538498 26.4785
-15.361 86.530754 26.462999
-15.10375 86.516502 26.438751
-14.901667 86.534332 26.445168
-14.642625 86.539627 26.442001
-14.382701 86.535103 26.423502
-14.097583 86.540001 26.408001
-13.861916 86.555336 26.423416
-13.6241 86.568802 26.425602
-13.374722 86.559914 26.393
-13.1995 86.6325 26.485249
-31.322001 85.985001 26.59
-31.144335 85.965668 26.557165
-30.855 85.966995 26.516251
-31.335001 86.050171 26.703165
-31.120401 86.04451 26.670599
-30.858002 86.081169 26.692001
-30.703377 86.038376 26.615
-30.138071 86.087082 26.6415
-29.844044 86.113464 26.664541
-29.644285 86.094139 26.6185
-29.418751 86.126862 26.657501
-27.850584 86.207497 26.6775
-27.595499 86.166595 26.609198
-27.374699 86.151596 26.580601
-27.649 86.259003 26.719
-18.084499 86.490494 26.570251
-17.8785 86.496002 26.575001
-17.589001 86.479996 26.534
-18.108625 86.565384 26.692501
-17.857084 86.546333 26.648918
-17.573334 86.539833 26.631002
-17.395416 86.565163 26.650167
-17.104189 86.583252 26.654249
-16.806999 86.503998 26.521
-15.839399 86.627533 26.650034
-15.637729 86.635017 26.652752
-15.330361 86.61216 26.59511
-15.116582 86.616447 26.596251
-14.883556 86.652206 26.637926
-14.624312 86.653313 26.620499
-14.350771 86.666779 26.629124
-14.118714 86.686935 26.648071
-13.881278 86.689049 26.642447
-13.617416 86.674255 26.599333
-13.349223 86.698616 26.606277
-13.171 86.737 26.659
-13.76 86.750999 26.7355
-13.6115 86.768997 26.7465
-13.389999 86.762497 26.7325
-13.176333 86.785667 26.733665
-31.384501 86.152222 26.863714
-31.136499 86.168816 26.880501
-30.881382 86.180016 26.860046
-30.133999 86.1745 26.775
-29.907 86.202332 26.817331
-29.618124 86.21875 26.814499
-29.436001 86.200996 26.771999
-29.208 86.227997 26.801001
-30.278 86.278999 26.923
-30.0415 86.297501 26.964001
-29.861916 86.296082 26.948
-29.5805 86.286659 26.925333
-29.394665 86.287666 26.912399
-29.145876 86.313629 26.930748
-27.3965 86.400497 26.9725
-21.407001 86.490005 26.776001
-21.849998 86.571999 26.933334
-21.548 86.519501 26.854
-21.370249 86.560997 26.87825
-21.134098 86.595947 26.927099
-20.84 86.653999 26.99
-18.144638 86.686729 26.898582
-17.885201 86.676598 26.865101
-17.623167 86.657997 26.82225
-17.3575 86.644005 26.782501
-17.109623 86.703506 26.846127
-16.868399 86.701698 26.833801
-15.802 86.736 26.825748
-15.665 86.739998 26.809999
-15.393999 86.719498 26.7665
-15.1115 86.726501 26.765751
-14.942499 86.738998 26.7785
-14.640666 86.735657 26.761333
-14.429667 86.740997 26.750668
-17.502001 86.811996 26.999001
-17.386501 86.772247 26.967501
-17.098999 86.771255 26.962
-16.89625 86.773254 26.952
-16.695499 86.779999 26.952999
-15.793 86.776001 26.913
-15.568667 86.804329 26.920664
-15.367399 86.788002 26.884197
-15.143833 86.809082 26.902246
-14.85614 86.819466 26.904335
-14.644125 86.806625 26.874752
-14.4166 86.836792 26.902002
-14.127333 86.860085 26.927334
-13.909125 86.845497 26.922501
-13.656 86.875122 26.911625
-13.439667 86.856323 26.839668
-13.2185 86.845749 26.83625
-31.833399 86.321899 27.1619
-31.609501 86.323997 27.145144
-31.368416 86.296913 27.088501
-31.150928 86.332146 27.136858
-30.903 86.280502 27.012749
-30.318001 86.389 27.132999
-30.146097 86.39785 27.139551
-29.853901 86.432396 27.162201
-29.63625 86.41819 27.130877
-29.365499 86.411491 27.113598
-29.128666 86.411797 27.086132
-28.882999 86.449005 27.1115
-28.611124 86.445496 27.1075
-28.347584 86.472504 27.142458
-28.147377 86.453873 27.091251
-27.852835 86.463753 27.093416
-27.6045 86.432999 27.026001
-27.414501 86.457504 27.058498
-29.337 86.5 27.242001
-29.066999 86.500999 27.197001
-28.639221 86.519005 27.225
-28.1245 86.537498 27.220625
-27.931334 86.538231 27.209778
-27.677332 86.545677 27.164
-27.485001 86.573997 27.237
-22.164644 86.671288 27.121288
-21.7675 86.620499 27.0305
-21.6099 86.685295 27.121399
-21.069666 86.670502 27.052
-20.873833 86.695671 27.068335
-21.546001 86.763504 27.242001
-18.528 86.861 27.212
-18.468 86.874001 27.208
-18.174252 86.867004 27.18
-17.842875 86.885628 27.198124
-17.6075 86.860626 27.140875
-17.360064 86.861122 27.130814
-17.120642 86.862717 27.1185
-16.861071 86.862144 27.095999
-16.594198 86.869499 27.099298
-16.421917 86.901001 27.126333
-15.887501 86.936501 27.127501
-15.567 86.896828 27.060999
-15.35657 86.916504 27.091
-15.120714 86.932564 27.104715
-14.876916 86.915993 27.075998
-14.5605 86.933502 27.076166
-14.3715 86.940811 27.073898
-14.085332 86.961334 27.089998
-13.856999 86.953163 27.063499
-13.699 86.945999 27.035999
-15.965 87.000999 27.247
-14.902 87.019997 27.238001
-14.651666 87.028954 27.216833
-14.4345 87.050995 27.2495
-14.156417 87.030334 27.193918
-13.9055 87.050003 27.210501
-13.643749 87.053505 27.202457
-13.163 87.098999 27.233
-32.046001 86.445999 27.4
-31.882299 86.452606 27.380199
-31.641293 86.444756 27.341499
-31.373798 86.436691 27.312099
-29.938 86.478996 27.25
-29.469 86.495003 27.25
-32.098503 86.501495 27.4895
-31.852501 86.514336 27.481333
-31.60825 86.5215 27.465
-31.345501 86.5065 27.418999
-31.150501 86.529495 27.3995
-30.063334 86.545837 27.387499
-29.875101 86.565506 27.384899
-29.631813 86.575127 27.384125
-29.372389 86.582253 27.38711
-29.1455 86.576248 27.349251
-28.887167 86.607246 27.391167
-28.607868 86.608871 27.369434
-28.391417 86.599998 27.354334
-28.133499 86.628754 27.380753
-27.8706 86.652802 27.408398
-27.64875 86.66375 27.38825
-27.063667 86.683998 27.400335
-26.915834 86.702835 27.405834
-24.486 86.692001 27.278999
-24.441 86.778999 27.365
-22.129997 86.825081 27.363501
-21.906836 86.890747 27.441252
-21.521999 86.802002 27.292
-21.327833 86.883827 27.409834
-21.116875 86.885254 27.407623
-20.961 86.857002 27.33
-20.527166 86.898003 27.373331
-20.438999 86.905243 27.3685
-18.615999 86.973999 27.384001
-18.364399 86.931602 27.3046
-18.184168 86.969337 27.362167
-17.840334 86.96167 27.331665
-17.644499 86.957245 27.30125
-17.390999 86.949005 27.282249
-17.101002 86.95417 27.278999
-16.904249 86.958 27.251751
-16.644333 86.981995 27.275667
-18.6115 87.024498 27.47275
-18.282501 87.044502 27.463501
-17.851999 87.015663 27.417168
-17.595585 87.044838 27.446583
-17.400667 87.049828 27.404583
-16.823 87.098 27.431999
-16.6633 87.055702 27.392899
-16.4575 87.024498 27.310749
-15.873668 87.031334 27.304998
-15.645604 87.08963 27.379604
-15.387501 87.104378 27.392624
-15.1145 87.075256 27.363003
-14.867332 87.067329 27.298334
-14.656 87.063004 27.278999
-14.364501 87.120331 27.355331
-14.124555 87.162804 27.403528
-13.880555 87.155327 27.386333
-13.624499 87.172501 27.396641
-13.370502 87.223 27.447001
-13.142888 87.182587 27.381166
-13.1555 87.251999 27.4865
-32.326 86.640999 27.690001
-32.150738 86.577835 27.609787
-31.918665 86.597664 27.606501
-31.661499 86.622498 27.647835
-31.347252 86.669754 27.649626
-31.123457 86.650352 27.621752
-30.937 86.7015 27.6915
-30.32975 86.692749 27.626375
-30.127167 86.700874 27.635666
-29.848364 86.698082 27.602057
-29.595875 86.707626 27.58675
-29.37875 86.696373 27.5525
-29.198999 86.683998 27.539
-28.9 86.695496 27.535999
-28.518999 86.667999 27.594999
-28.363001 86.729454 27.544333
-28.1415 86.744995 27.555
-27.890751 86.747002 27.55975
-27.737 86.741997 27.541
-30.341999 86.755997 27.725
-29.6915 86.78125 27.723499
-29.351101 86.776001 27.6833
-29.169334 86.792336 27.709665
-28.854 86.812378 27.692627
-28.6485 86.803627 27.702499
-28.413666 86.816338 27.682501
-28.124666 86.813477 27.67062
-27.877802 86.839798 27.6975
-27.679001 86.753998 27.539
-27.309999 86.867996 27.694
-27.107084 86.818085 27.613501
-26.907459 86.831787 27.625999
-26.723249 86.846001 27.626125
-24.603498 86.911255 27.640833
-24.409332 86.895668 27.606333
-22.157749 86.947754 27.560751
-21.848125 86.962379 27.569626
-21.701 86.988998 27.615
-20.858 86.982002 27.513
-22.060501 87.009506 27.644501
-21.863998 87.036659 27.679335
-21.622501 87.063499 27.712
-20.853334 87.0495 27.631668
-20.611166 87.067169 27.644165
-20.132 87.081337 27.643999
-18.624187 87.134308 27.633375
-18.365778 87.168495 27.673721
-18.116001 87.179001 27.6698
-17.828499 87.156494 27.649332
-17.640251 87.140373 27.611248
-17.389284 87.169289 27.635427
-17.155668 87.21151 27.672667
-16.867834 87.176422 27.605333
-16.688374 87.188622 27.610874
-15.751 87.193001 27.559
-15.6525 87.193497 27.5415
-15.403333 87.192169 27.550667
-15.1585 87.19738 27.534376
-14.842 87.217499 27.5495
-14.6555 87.236496 27.560501
-14.4135 87.237335 27.547001
-14.059 87.237 27.554001
-13.9695 87.244003 27.542999
-16.647999 87.267502 27.743999
-16.013 87.250999 27.731001
-15.8885 87.270996 27.698
-15.653834 87.296669 27.707335
-15.315499 87.289497 27.674166
-15.076167 87.296669 27.670502
-14.893417 87.300255 27.663834
-14.56475 87.303879 27.661875
-14.317301 87.309502 27.6647
-14.1153 87.3312 27.6712
-13.865916 87.321999 27.652334
-13.608713 87.332642 27.648716
-13.370375 87.338257 27.64625
-13.119901 87.343246 27.6362
-12.8785 87.322311 27.596752
-12.74275 87.390747 27.68825
-32.334499 86.722 27.8195
-32.109501 86.704498 27.804501
-31.64925 86.727249 27.804001
-31.361498 86.729836 27.768
-32.395 86.785004 27.950251
-32.173332 86.786995 27.934334
-31.835999 86.796005 27.910198
-31.633835 86.807251 27.929251
-31.389124 86.805496 27.892376
-31.140724 86.840668 27.911221
-30.889999 86.8125 27.853714
-30.571251 86.861496 27.897375
-30.384689 86.861877 27.894417
-30.119356 86.853432 27.859358
-29.864223 86.868385 27.867445
-29.597698 86.880798 27.873602
-29.353165 86.897217 27.884027
-29.1341 86.924698 27.896601
-28.853189 86.925217 27.893284
-28.624109 86.915779 27.879778
-28.359415 86.936165 27.879831
-28.130249 86.92675 27.852585
-27.914499 86.941498 27.866751
-27.400249 86.987251 27.874001
-27.12925 86.972244 27.863251
-26.882374 86.952873 27.820875
-26.6975 86.977997 27.829
-28.025999 87.012001 27.992001
-27.966999 87.025002 27.997999
-27.35 87.037003 27.96825
-26.848499 87.027252 27.94175
-26.625168 87.050499 27.944666
-24.636999 87.069 27.875
-24.397125 87.054001 27.85125
-24.167 87.082741 27.895334
-22.656801 87.1698 27.937
-21.841 87.151505 27.8475
-21.661142 87.181709 27.890049
-21.4335 87.205505 27.911999
-21.183599 87.170303 27.8785
-20.8465 87.194 27.855333
-20.641165 87.188499 27.846169
-20.291666 87.197662 27.822998
-20.116333 87.186668 27.837334
-19.818748 87.194244 27.803623
-18.824333 87.229668 27.781836
-18.545 87.222 27.795
-18.479 87.223999 27.778999
-18.167 87.223 27.757
-17.637667 87.241333 27.777334
-20.115499 87.276672 27.965666
-19.880999 87.283669 27.953665
-19.742001 87.278 27.932499
-18.851168 87.30249 27.9235
-18.742001 87.254997 27.834999
-18.374666 87.321999 27.911001
-18.177301 87.307899 27.902201
-17.855667 87.329674 27.939835
-17.67 87.283997 27.837999
-17.3395 87.324249 27.882999
-17.12225 87.346642 27.903641
-16.871334 87.34938 27.887714
-16.619333 87.336082 27.857752
-16.41 87.348915 27.848917
-15.84125 87.395996 27.894999
-15.614 87.385429 27.856859
-15.365286 87.409248 27.879288
-15.117858 87.402145 27.853786
-14.833571 87.44857 27.910284
-14.625572 87.418503 27.850859
-14.381446 87.445831 27.878862
-14.127875 87.438629 27.855501
-13.858388 87.45414 27.854752
-13.606501 87.432495 27.81275
-13.36775 87.444122 27.820999
-13.122 87.470398 27.8475
-12.860901 87.444199 27.814098
-12.659 87.470001 27.809
-14.575001 87.507004 27.9835
-14.191 87.533493 27.991501
-13.8485 87.525505 27.982666
-13.7 87.511002 27.923
-13.376751 87.551003 27.973
-13.095667 87.537498 27.956835
-12.833 87.531502 27.94025
-12.67 87.537498 27.9305
-32.647499 86.89975 28.139
-32.362736 86.907402 28.131668
-32.126415 86.894753 28.099667
-31.852835 86.915161 28.110916
-31.600376 86.91787 28.098751
-31.368835 86.934456 28.095583
-31.126699 86.958405 28.1096
-30.987 86.925003 28.045
-30.5245 86.963997 28.0835
-30.4025 86.970749 28.07225
-30.1415 86.960663 28.0315
-29.945 86.964996 28.027
-29.639999 86.982666 28.042
-29.404499 86.983505 28.039
-29.104 86.991997 28.031
-31.628 87.002998 28.233
-31.266001 87.028 28.241001
-31.1045 87.022003 28.227249
-30.885 87.028999 28.195999
-30.605751 87.048996 28.225
-30.369501 87.041702 28.183201
-30.132498 87.047104 28.171398
-29.873779 87.032555 28.129333
-29.646168 87.055916 28.16396
-29.366716 87.07386 28.159143
-29.118603 87.054802 28.126598
-28.872667 87.084419 28.148581
-28.639063 87.084625 28.13625
-28.359859 87.108932 28.150858
-28.144199 87.077599 28.0826
-27.983 87.072998 28.084
-27.567125 87.130127 28.129124
-27.3694 87.128799 28.116001
-27.122927 87.124283 28.106358
-26.904167 87.149506 28.138834
-26.613703 87.1707 28.144098
-24.585333 87.193001 28.077667
-24.427 87.184998 28.078667
-24.043999 87.210999 28.088001
-22.7705 87.236504 28.053501
-22.601501 87.2435 28.051167
-22.450001 87.245499 28.053501
-24.462 87.299004 28.208
-24.103834 87.279175 28.199499
-22.823875 87.282631 28.137875
-22.593111 87.318054 28.178556
-22.383928 87.302933 28.142359
-22.158749 87.352875 28.212626
-20.813 87.310997 28.031
-20.617001 87.4375 28.227001
-20.289499 87.420502 28.213501
-20.14575 87.358124 28.107
-19.8624 87.378403 28.114801
-19.690802 87.397202 28.132
-19.0355 87.4095 28.127499
-18.869972 87.39978 28.091415
-18.738499 87.380501 28.036499
-18.452 87.391998 28.038
-18.0802 87.431801 28.104401
-17.91275 87.47525 28.162001
-17.605625 87.439003 28.09325
-17.328602 87.459702 28.108398
-17.092001 87.463623 28.089874
-16.874802 87.4701 28.0928
-16.622799 87.458694 28.060001
-16.422333 87.464165 28.043665
-16.122999 87.477997 28.018
-15.897 87.477005 28.036751
-15.60025 87.494247 28.03425
-15.394 87.490494 28.018499
-15.177 87.492996 28.023001
-17.81175 87.530251 28.238499
-17.402 87.552002 28.247
-17.043333 87.553329 28.235668
-16.907665 87.548332 28.227501
-16.660666 87.539673 28.186333
-16.129999 87.513 28.1
-15.8299 87.558792 28.171
-15.63025 87.572754 28.154873
-15.366501 87.588005 28.174999
-15.107124 87.59613 28.152374
-14.8873 87.575996 28.126699
-14.633867 87.593369 28.134052
-14.353583 87.587524 28.102472
-14.10325 87.605995 28.124914
-13.850024 87.621284 28.141571
-13.628928 87.625717 28.127287
-13.371611 87.655731 28.1525
-13.134 87.639496 28.123835
-12.87725 87.62458 28.096666
-12.743 87.602997 28.063
-32.049 86.997002 28.275
-32.416 87.049088 28.353832
-32.143002 87.069748 28.3585
-31.890251 87.048622 28.306875
-31.632082 87.063255 28.311165
-31.370901 87.088196 28.325001
-31.116333 87.09967 28.319666
-30.907166 87.119164 28.328667
-30.644554 87.134438 28.335333
-30.346558 87.158562 28.354776
-30.124798 87.154999 28.3326
-29.877071 87.162582 28.316788
-29.633749 87.177086 28.335167
-29.410833 87.168175 28.306501
-29.105 87.192001 28.320625
-28.891249 87.195374 28.307125
-28.640833 87.22583 28.340334
-28.377501 87.210327 28.29917
-28.1945 87.202499 28.2775
-27.632334 87.229668 28.275667
-27.349665 87.22599 28.276667
-26.832001 87.244499 28.275
-26.559999 87.237999 28.257
-28.619999 87.261505 28.405001
-28.4035 87.270752 28.37825
-28.188999 87.290001 28.371
-27.641832 87.29467 28.366165
-27.3505 87.300842 28.370834
-27.091251 87.296127 28.365875
-26.93725 87.307495 28.36525
-22.365166 87.446007 28.370417
-20.647499 87.476326 28.313833
-20.334 87.463997 28.271999
-20.13125 87.495499 28.324001
-18.927999 87.499001 28.257999
-20.794001 87.5 28.358
-20.610001 87.539749 28.41675
-20.4195 87.552002 28.406
-20.18 87.542999 28.389
-17.346001 87.579002 28.25
-17.127335 87.656166 28.393
-16.88661 87.661995 28.395582
-16.6185 87.663391 28.3706
-15.86175 87.695999 28.369249
-15.629166 87.666168 28.300001
-15.361954 87.687973 28.333597
-15.10775 87.692383 28.327875
-14.8985 87.719002 28.3535
-14.659967 87.710266 28.326868
-14.3806 87.705002 28.2978
-14.119875 87.719627 28.314249
-13.912 87.713341 28.295668
-13.684 87.711998 28.280251
-15.62775 87.766998 28.442501
-15.347 87.765999 28.452999
-15.100667 87.780663 28.453667
-14.875875 87.804504 28.4655
-14.595666 87.791008 28.457666
-14.369999 87.801628 28.447124
-14.12425 87.793999 28.423
-13.850626 87.810501 28.431374
-13.6318 87.790604 28.385502
-13.403501 87.804108 28.3974
-13.162167 87.817253 28.39225
-15.488 87.792999 28.503
-15.044 87.808998 28.509001
-14.350666 87.829674 28.508667
-14.087999 87.859749 28.515999
-13.945499 87.861 28.51
-13.585999 87.876251 28.51025
