# .PCD v0.7 - Point Cloud Data file format
VERSION 0.7
FIELDS x y z
SIZE 4 4 4
TYPE F F F
COUNT 1 1 1
WIDTH 288
HEIGHT 1
VIEWPOINT -18.2321 96.2205 -1.35163 -0.354149 -0.00701479 0.0211809 0.934923
POINTS 288
DATA ascii
56.484001 2.619 13.927
56.800999 2.5139999 13.966
56.1175 2.8959999 13.9105
56.494999 2.8180001 13.984
56.560001 2.7820001 13.985
55.881001 3.1800001 13.944
55.73 3.3670001 13.969
55.944 3.263 13.993
55.592999 3.5150001 13.972
54.587002 4.15275 13.910749
54.852249 4.1149998 13.9785
53.973999 4.3260002 13.802
54.129997 4.395 13.8645
54.272999 4.4650002 13.943
54.5825 4.3144999 13.9745
53.603832 4.6478333 13.806666
53.860996 4.5943332 13.864333
54.108501 4.658 13.958
54.291748 4.552 13.97525
53.626999 4.9283333 13.923667
53.900253 4.7959995 13.96
58.035 1.469 14.002
57.941338 1.7493334 14.034
57.979736 1.8898 14.118401
57.499001 2.1400001 14.042
57.133999 2.487 14.056
57.376667 2.3917222 14.103778
57.631668 2.3476667 14.186
57.765999 2.273 14.207
56.928497 2.6564999 14.0605
57.047302 2.6638 14.1127
57.312336 2.5866666 14.180867
57.52 2.5039999 14.236
56.416 2.934 14.01
56.695667 2.9265001 14.103833
56.8992 2.8820999 14.163
57.077 2.8143337 14.211166
56.1875 3.197 14.0395
56.352081 3.1466668 14.082583
56.632996 3.092 14.16325
56.777 3.029 14.203
55.935333 3.4300001 14.048667
56.110802 3.4049001 14.1166
56.334129 3.3783751 14.201
56.5205 3.277 14.2435
55.667248 3.6472502 14.055
55.918335 3.6114168 14.1435
56.101948 3.5534446 14.202834
55.139999 3.951 14.007
55.371326 3.8995836 14.074084
55.613155 3.8379524 14.142869
55.779499 3.8512499 14.247251
54.91 4.1669998 14.014
55.094837 4.1561666 14.094501
55.352001 4.0830975 14.179222
54.645802 4.4140997 14.047299
54.897457 4.3688331 14.141999
55.061497 4.3209996 14.198334
54.40625 4.6886945 14.097889
54.644497 4.6070714 14.1685
54.767746 4.5539999 14.219749
53.95425 4.9235001 14.034
54.127583 4.9204173 14.127749
54.328327 4.8542285 14.188105
57.938126 2.1773751 14.283875
57.695126 2.4538751 14.307625
57.869446 2.3376002 14.368306
57.397797 2.6761999 14.3112
57.583355 2.6248214 14.405177
57.843498 2.5184999 14.466
56.9725 2.9821668 14.395834
57.121952 2.9035242 14.334715
57.347263 2.8111191 14.390215
56.687378 3.2159998 14.3585
56.867851 3.1054721 14.353953
57.066601 3.062067 14.424667
56.399704 3.4123149 14.358704
56.613583 3.3600833 14.415861
56.764248 3.25175 14.457001
55.933998 3.7354999 14.394
56.126953 3.6562736 14.389642
56.348774 3.5584862 14.394555
55.652401 3.9616807 14.360779
55.862194 3.859894 14.374426
56.096336 3.8529167 14.45825
55.396915 4.1728888 14.36914
55.573811 4.0698576 14.370547
54.923126 4.4529171 14.361001
55.119064 4.3830209 14.372603
55.353149 4.3541002 14.4276
55.523003 4.2545004 14.4585
54.65398 4.6930337 14.346216
54.853905 4.600894 14.373092
55.181999 4.5304999 14.46575
54.185501 4.974 14.4035
54.361198 4.8842583 14.3668
54.581249 4.8247223 14.36375
54.791 4.777 14.445
57.694 2.4613333 14.579
57.883667 2.4049335 14.548433
57.357498 2.7189999 14.5215
57.608944 2.6111109 14.561084
57.803123 2.6216252 14.582375
56.977753 2.9654999 14.5835
57.087997 2.9089999 14.518499
57.397751 2.8648748 14.562125
57.624252 2.8526669 14.610085
57.805332 2.8166666 14.714334
56.833332 3.1285 14.526833
57.171249 3.1125 14.543626
57.360401 3.1236 14.6676
57.576 3.0534999 14.73
56.354 3.4586668 14.575
56.671673 3.4366665 14.531834
56.840668 3.3631666 14.573166
57.142498 3.3506999 14.7006
57.294998 3.263 14.723
56.451 3.6919999 14.535
56.623596 3.6300998 14.624899
56.860497 3.56675 14.698
55.637001 3.9300001 14.546
55.867249 3.9272499 14.54375
56.184834 3.8764999 14.572166
56.362202 3.8715999 14.639799
56.58717 3.7926111 14.709778
55.88575 4.16575 14.61975
56.121334 4.0976667 14.67075
56.287998 4.0359998 14.718
54.946999 4.4254999 14.5135
55.069 4.4549999 14.599
55.457001 4.447 14.593
55.635418 4.4108329 14.632916
55.849098 4.3113003 14.676102
55.100498 4.6561666 14.541333
55.361355 4.6365004 14.6465
55.545998 4.5909996 14.71475
54.908802 4.9108 14.606501
55.111 4.8504996 14.664299
55.310165 4.7557502 14.705999
54.477001 5.0609999 14.52
54.630936 5.1867499 14.64125
54.84267 5.0581665 14.664001
57.833069 2.9019332 14.808184
57.398003 3.2385001 14.782249
57.636894 3.1508126 14.859271
57.80365 3.0857251 14.9356
57.175377 3.4311249 14.78875
57.367134 3.3820164 14.875633
57.595501 3.2943335 14.955501
56.735001 3.7305 14.754
56.905334 3.6572502 14.801084
57.101543 3.6076667 14.894292
57.318253 3.5157499 14.95575
56.617249 3.9180832 14.836415
56.833584 3.8370001 14.912999
57.015999 3.75 14.9545
56.199123 4.1945 14.8035
56.39426 4.1248336 14.868571
56.558372 4.0713749 14.93125
55.911751 4.4135418 14.801083
56.085129 4.3546109 14.868629
56.295166 4.2888336 14.943168
55.443001 4.7379999 14.7835
55.655449 4.6561427 14.844262
55.836662 4.5793333 14.905499
56.035999 4.5339999 14.981
55.200893 4.9202228 14.775777
55.389606 4.8916659 14.875054
55.557598 4.8312006 14.939501
54.737999 5.2199998 14.752501
54.913502 5.1745 14.8091
55.106403 5.1174588 14.889832
55.323666 5.0428333 14.962334
54.98 5.2620001 14.923
55.0485 5.2504997 14.961
57.79108 3.2090833 15.040082
57.625118 3.4258332 15.09043
57.780334 3.3376667 15.141734
57.194 3.6789999 15.0215
57.392071 3.6362145 15.107356
57.570892 3.5663331 15.173668
56.900402 3.9408002 15.048601
57.125668 3.865 15.125856
57.310669 3.7865002 15.188667
56.470001 4.2495003 15.023
56.640167 4.16675 15.072
56.850002 4.1142225 15.160666
57.07 4.0139999 15.216
56.18425 4.4552498 15.024
56.409718 4.4115715 15.123906
56.597752 4.3243752 15.175249
55.899723 4.6848888 15.032779
56.121998 4.6298838 15.127357
56.335499 4.5851665 15.231334
55.457001 4.9970002 15.013
55.652504 4.9020834 15.058333
55.852867 4.8584833 15.148967
55.194668 5.2116666 15.035167
55.400475 5.1416192 15.100214
55.601448 5.0741906 15.178118
55.152248 5.3305006 15.102
55.358456 5.2921247 15.210084
57.772999 3.494 15.301
57.482498 3.7410002 15.259501
57.662666 3.6644521 15.322357
57.754501 3.6006665 15.356501
57.2435 3.95575 15.28525
57.390408 3.9014285 15.343667
57.630138 3.8306389 15.440639
56.931561 4.2104449 15.294556
57.120312 4.1468749 15.369812
57.315834 4.0640998 15.4259
56.672504 4.4218612 15.320389
56.897198 4.3599167 15.401805
57.042999 4.3245001 15.46825
56.248001 4.711 15.283
56.412304 4.6568999 15.346201
56.599533 4.5934629 15.40861
55.924335 4.9545002 15.2795
56.136482 4.8859587 15.365792
56.333248 4.8134999 15.429168
55.664524 5.1921115 15.328778
55.877281 5.115531 15.390167
56.081501 5.0275002 15.458167
55.633625 5.3080001 15.397625
55.7505 5.2580004 15.444
57.696163 3.8939445 15.554862
57.415058 4.1716113 15.586445
57.607613 4.0820742 15.654369
56.935501 4.4762497 15.52575
57.138836 4.3802967 15.585334
57.308502 4.3555999 15.6742
56.692501 4.6890001 15.550501
56.877556 4.646759 15.641537
57.096291 4.5767498 15.719791
56.229 4.9889998 15.51
56.426834 4.9187498 15.581584
56.602276 4.8559999 15.643295
56.75 4.8530002 15.73
56.120415 5.133646 15.571499
56.3325 5.1040831 15.677333
55.879799 5.3199005 15.5769
56.037334 5.3224444 15.675111
57.680447 4.1928887 15.811611
57.408802 4.424367 15.798633
57.599216 4.3512025 15.873488
57.176357 4.6606431 15.846786
57.350811 4.6071391 15.918637
57.574501 4.5184999 15.9925
56.713501 4.9510002 15.79
56.892242 4.8892388 15.859929
57.087917 4.8335834 15.939584
56.2365 5.2474999 15.7535
56.438168 5.1801667 15.811584
56.627117 5.1042781 15.874111
56.807419 5.0517497 15.94175
56.1595 5.3253336 15.762667
56.369881 5.3280244 15.904405
56.561337 5.2580004 15.958334
57.642998 4.4503336 16.021
57.406502 4.71 16.061001
57.582527 4.6511388 16.129271
57.139225 4.9165554 16.044001
57.37254 4.8520212 16.143885
57.583 4.7839999 16.229
56.693836 5.2238336 16.0315
56.895164 5.1541338 16.0905
57.076935 5.0785666 16.145567
57.251503 5.0625 16.247
56.486 5.3720002 16.011
56.652519 5.3657293 16.113792
56.865875 5.3125 16.213501
57.469002 4.9674997 16.30225
57.574371 4.8993125 16.346312
57.140499 5.20825 16.30475
57.367771 5.1304169 16.379063
57.537998 5.0595832 16.438667
56.89333 5.4319167 16.338417
57.132252 5.3434448 16.410555
57.258003 5.2635002 16.43
56.890499 5.5135002 16.404499
57.5242 5.2026 16.559151
57.19875 5.4412498 16.539
57.36565 5.3899999 16.60865
57.528111 5.3171668 16.676111
57.129002 5.537334 16.574667
57.289501 5.5535002 16.694
57.511501 5.4584999 16.796333
