# .PCD v0.7 - Point Cloud Data file format
VERSION 0.7
FIELDS x y z
SIZE 4 4 4
TYPE F F F
COUNT 1 1 1
WIDTH 86
HEIGHT 1
VIEWPOINT -18.2321 96.2205 -1.35163 -0.354149 -0.00701479 0.0211809 0.934923
POINTS 86
DATA ascii
17.131769 -19.593122 12.244634
17.400364 -19.55291 12.248664
17.64954 -19.550232 12.249616
17.354628 -19.356943 12.232423
17.620811 -19.351576 12.241072
17.869469 -19.381952 12.245258
18.116461 -19.336117 12.244984
18.347042 -19.306395 12.245857
17.421305 -19.202749 12.220657
17.651083 -19.118658 12.228104
17.882946 -19.133074 12.235054
18.154747 -19.133291 12.236038
19.136209 -22.144175 12.383012
19.351934 -22.102654 12.382485
19.62779 -22.131199 12.384891
18.866415 -21.877184 12.367448
19.116316 -21.869081 12.369596
19.3801 -21.851501 12.368062
19.642256 -21.851992 12.372235
19.860579 -21.863644 12.376546
18.595993 -21.621548 12.354532
18.849859 -21.620073 12.35655
19.148739 -21.60154 12.358232
19.365931 -21.625736 12.361613
19.614561 -21.636541 12.365542
19.869785 -21.589146 12.366037
18.358303 -21.376297 12.340203
18.626804 -21.413355 12.343387
18.848356 -21.366915 12.345051
19.113871 -21.356079 12.348171
19.352848 -21.377911 12.350214
19.614616 -21.355974 12.351506
19.8528 -21.39595 12.357793
18.36532 -21.134724 12.330092
18.620367 -21.149555 12.334219
18.879145 -21.133371 12.334743
19.114086 -21.129599 12.336737
19.365372 -21.117792 12.339955
19.630243 -21.131754 12.341614
19.880489 -21.130697 12.343912
18.118446 -20.849842 12.315939
18.368963 -20.912546 12.319981
18.649292 -20.902533 12.323623
18.871428 -20.872152 12.323546
19.099716 -20.850412 12.324229
19.352295 -20.878263 12.327434
19.659039 -20.881674 12.331008
17.864208 -20.614958 12.302794
18.148491 -20.602966 12.306346
18.375885 -20.662689 12.310025
18.620142 -20.633556 12.309838
18.878668 -20.648691 12.314017
19.15003 -20.633631 12.316405
19.384684 -20.619438 12.315761
17.616068 -20.38558 12.289495
17.841282 -20.386511 12.293184
18.135605 -20.3913 12.295774
18.361656 -20.373178 12.296647
18.64451 -20.370596 12.299212
18.890266 -20.364788 12.300056
19.139088 -20.364317 12.30303
17.194376 -20.062168 12.269286
17.370312 -20.142582 12.274348
17.647402 -20.122894 12.278704
17.89813 -20.148325 12.283408
18.113211 -20.114466 12.282356
18.371765 -20.112171 12.284108
18.615465 -20.115366 12.287692
18.866648 -20.136307 12.28973
17.120197 -19.849287 12.25754
17.369417 -19.886211 12.262619
17.648258 -19.863432 12.264953
17.897968 -19.897669 12.270884
18.114496 -19.864288 12.270466
18.351274 -19.865042 12.272276
18.648563 -19.862968 12.27497
17.249819 -19.743729 12.254544
17.375967 -19.676077 12.253799
17.601631 -19.651108 12.254809
17.861614 -19.636778 12.256475
18.131241 -19.615469 12.259591
18.384623 -19.631338 12.262216
18.626583 -19.637644 12.262662
18.196888 -19.450445 12.251722
18.411934 -19.420134 12.2531
18.535 -19.464001 12.255286
