# .PCD v0.7 - Point Cloud Data file format
VERSION 0.7
FIELDS x y z
SIZE 4 4 4
TYPE F F F
COUNT 1 1 1
WIDTH 133
HEIGHT 1
VIEWPOINT -18.2321 96.2205 -1.35163 -0.354149 -0.00701479 0.0211809 0.934923
POINTS 133
DATA ascii
-41.435333 -110.174 6.6453338
-41.129166 -109.80309 6.6031666
-41.637901 -110.12317 6.9129333
-41.426998 -110.1535 6.9125004
-41.163502 -109.7925 6.8831
-42.2705 -110.515 7.1975002
-42.14883 -110.56928 7.1419449
-42.363197 -110.4492 7.1363997
-41.639141 -110.11785 7.1158576
-41.415001 -110.123 7.1365004
-41.160198 -109.78419 7.1204004
-40.944168 -109.77217 7.1003332
-41.000999 -109.724 7.0570002
-42.271 -110.515 7.3200002
-42.169003 -110.54345 7.4213333
-42.380501 -110.43734 7.353334
-41.829666 -110.073 7.3580003
-41.662582 -110.09784 7.3705626
-41.393501 -110.066 7.4012499
-41.130249 -109.79275 7.3627501
-40.947502 -109.8205 7.3249998
-41.185001 -109.749 7.4510002
-40.996334 -109.71166 7.3433337
-42.268002 -110.51067 7.6526666
-42.131332 -110.55001 7.6283336
-42.362331 -110.42816 7.6259999
-41.826 -110.0645 7.5839996
-41.625 -110.09686 7.6422858
-41.381001 -110.031 7.7059999
-41.144875 -109.76974 7.5912499
-40.991753 -109.701 7.6097498
-42.194252 -110.5645 7.8602505
-42.326572 -110.42934 7.8747859
-42.0755 -110.4815 7.9124999
-41.82 -110.049 7.8510003
-41.662476 -110.07729 7.8854761
-41.496498 -110.128 7.9245
-41.3545 -109.9655 7.9089999
-41.127499 -109.766 7.8555007
-41.18 -109.737 7.9429998
-40.988998 -109.69466 7.8473334
-42.182999 -110.53634 8.1273336
-42.317585 -110.42126 8.1230001
-42.124668 -110.452 8.1260004
-41.814247 -110.0335 8.1175003
-41.643059 -110.07563 8.1230631
-41.458504 -110.10775 8.1064997
-41.341 -109.93 8.1929998
-41.095501 -109.76525 8.1177502
-41.176247 -109.729 8.0874996
-40.985668 -109.68634 8.1630001
-42.187332 -110.54934 8.3783331
-42.3325 -110.352 8.3946657
-42.239998 -110.4395 8.434
-41.878002 -110.0825 8.3842506
-41.449001 -110.075 8.4266663
-41.918999 -109.9595 8.4949999
-41.094002 -109.763 8.3029995
-41.151001 -109.72601 8.3715
-40.98175 -109.6765 8.3874998
-41.805 -110.01151 8.6127501
-41.485165 -110.10117 8.6360006
-41.911201 -109.9614 8.6434002
-41.125874 -109.72237 8.59375
-40.978668 -109.66967 8.6540003
-42.170502 -110.507 8.8310003
-41.483002 -110.097 8.9115
-41.337997 -109.923 8.8115005
-41.111572 -109.70344 8.8621426
-40.974251 -109.66 8.9204998
-41.472748 -110.07126 9.0957499
-41.303497 -109.8345 9.1345005
-41.099998 -109.6812 9.1400003
-41.460999 -110.03934 9.3613329
-41.284332 -109.783 9.335
-41.252998 -109.7 9.4910002
-41.115101 -109.6734 9.3563004
-41.453247 -110.0205 9.58675
-41.143055 -109.65238 9.6513891
-41.456001 -110.028 9.9379997
-41.432503 -109.966 9.8085003
-41.136082 -109.63409 9.9080839
-41.442001 -109.993 10.099
-41.131111 -109.62255 10.147222
-41.446999 -110.009 10.351
-41.441002 -109.991 10.266
-41.126583 -109.61141 10.399917
-41.421501 -109.94075 10.6115
-41.125999 -109.61072 10.617714
-41.402996 -109.89267 10.848167
-41.537998 -110.012 11.026
-41.382999 -109.84232 11.159332
-41.1035 -109.58406 11.126248
-41.572765 -109.96181 11.371035
-41.407001 -109.90725 11.393499
-41.635551 -109.92806 11.63955
-41.404999 -109.90466 11.662666
-41.138142 -109.57864 11.633357
-41.636497 -109.91 11.882905
-41.369999 -109.812 11.818
-41.145332 -109.585 11.877833
-41.333 -109.717 12.22
-41.1605 -109.567 12.094501
-41.296997 -109.6205 12.4175
-41.273167 -109.55984 12.630333
-41.486332 -109.88666 12.834667
-41.2495 -109.497 12.9
-41.480499 -109.87276 13.103
-41.179249 -109.52425 13.08375
-41.481167 -109.87784 13.345333
-41.148167 -109.45667 13.351333
-41.465668 -109.839 13.659333
-40.972 -109.46525 13.6085
-41.65786 -109.81879 13.892929
-41.457001 -109.81667 13.905334
-41.622128 -109.82275 14.128125
-41.460003 -109.82733 14.155666
-41.635784 -109.79851 14.390286
-41.441498 -109.7795 14.41925
-41.587833 -109.82409 14.6365
-41.441002 -109.778 14.566
-41.821625 -109.73763 14.602875
-41.69175 -109.7475 14.589001
-41.418503 -109.7205 14.681
-41.590626 -109.80312 14.907375
-41.834431 -109.72157 14.866714
-41.688 -109.7395 14.816
-41.403 -109.68034 14.884999
-41.585136 -109.78577 15.1132
-41.865856 -109.70436 15.116216
-41.58836 -109.77673 15.367416
-41.376999 -109.615 15.374667
-41.133289 -109.39629 15.399285
