# .PCD v0.7 - Point Cloud Data file format
VERSION 0.7
FIELDS x y z
SIZE 4 4 4
TYPE F F F
COUNT 1 1 1
WIDTH 382
HEIGHT 1
VIEWPOINT -18.2321 96.2205 -1.35163 -0.354149 -0.00701479 0.0211809 0.934923
POINTS 382
DATA ascii
-83.345001 -39.198002 19.497
-83.095001 -38.938 19.483
-82.183998 -38.02 19.451
-82.080002 -37.871498 19.483501
-81.810997 -37.640999 19.417
-81.080505 -36.857498 19.436001
-80.946999 -36.761002 19.368
-80.940002 -36.694 19.445999
-86.718002 -42.573002 19.725
-86.301003 -42.143002 19.718
-86.075256 -41.942497 19.679001
-85.988998 -41.847 19.67
-85.795998 -41.673 19.658335
-85.696503 -41.584499 19.616501
-85.714996 -41.491001 19.716
-85.326004 -41.167248 19.6455
-85.237999 -41.105 19.603001
-85.008003 -40.777 19.684999
-84.960495 -40.848 19.587002
-84.803001 -40.645 19.610001
-84.630501 -40.398998 19.664499
-84.284332 -40.067997 19.637999
-83.878197 -39.646 19.624599
-83.63633 -39.359333 19.657331
-83.490997 -39.338001 19.539
-83.587997 -39.240002 19.729
-83.418663 -39.090332 19.688334
-83.129997 -38.883751 19.598999
-83.019997 -38.623001 19.736
-82.85775 -38.612999 19.58
-82.815002 -38.417999 19.706001
-82.612999 -38.360668 19.561998
-82.523003 -38.178001 19.666
-82.432999 -38.119499 19.605
-82.3815 -37.941502 19.720001
-82.104004 -37.813 19.5865
-82.098755 -37.706249 19.657501
-81.854996 -37.559998 19.554501
-81.872002 -37.425003 19.720001
-81.681 -37.348999 19.577333
-81.647995 -37.188 19.708
-81.419998 -37.099499 19.556499
-81.303001 -36.902332 19.631666
-81.144997 -36.786999 19.561001
-81.094498 -36.662498 19.64875
-80.966003 -36.6045 19.602501
-80.831596 -36.417198 19.6276
-80.705002 -36.319 19.546
-87.190247 -42.915497 19.914249
-87.014 -42.719002 19.933001
-86.884499 -42.63575 19.856249
-86.628998 -42.343002 19.867001
-86.587997 -42.247501 19.938999
-86.374496 -42.070999 19.865999
-86.182495 -41.839249 19.890999
-86.031006 -41.677498 19.8895
-85.871002 -41.526001 19.8925
-85.8535 -41.440002 19.92
-85.636002 -41.334499 19.801998
-85.579498 -41.165001 19.936501
-85.4515 -41.1035 19.837999
-85.347 -40.977997 19.842499
-85.092499 -40.785 19.814499
-85.070335 -40.665333 19.865999
-84.995003 -40.632 19.812
-84.876999 -40.388 19.9545
-84.724327 -40.350666 19.824333
-84.60125 -40.166 19.861
-84.386002 -40.042999 19.785999
-84.354401 -39.901199 19.8636
-84.072998 -39.612 19.879667
-83.976997 -39.568001 19.787001
-84.051003 -39.458 19.975
-83.876999 -39.413002 19.845001
-83.685501 -39.181335 19.899834
-83.533005 -38.962502 19.9345
-83.2995 -38.785999 19.8925
-83.208496 -38.811001 19.756001
-83.181335 -38.625332 19.896666
-83.080002 -38.437 19.999001
-82.88562 -38.390121 19.827
-82.654007 -38.102249 19.86825
-82.598999 -37.971001 19.921501
-82.427505 -37.824501 19.890499
-82.262001 -37.568001 19.968
-82.194328 -37.632999 19.848
-82.065994 -37.446999 19.880501
-81.8965 -37.302002 19.867001
-81.868332 -37.204998 19.919333
-81.595001 -37.024498 19.8265
-81.443001 -36.924 19.763
-81.113556 -36.631832 19.857277
-81.152672 -36.426331 19.906334
-87.235001 -42.790501 20.110001
-87.109993 -42.616669 20.126667
-86.983002 -42.556 20.025
-87.032997 -42.428001 20.198
-86.931503 -42.378998 20.154499
-86.711998 -42.271999 20.055
-86.644501 -42.100166 20.122499
-86.498001 -42.011002 20.059
-86.321999 -41.808334 20.087334
-86.357002 -41.721001 20.212999
-86.227997 -41.621002 20.147999
-85.932205 -41.3568 20.1066
-85.798996 -41.1245 20.187
-85.539001 -41.033001 20.016001
-85.613335 -40.952 20.170332
-85.408501 -40.866501 20.021999
-85.317001 -40.633999 20.172001
-85.201668 -40.602333 20.075666
-85.091995 -40.417503 20.131001
-84.855339 -40.160336 20.149666
-84.596001 -40.001999 20.028999
-84.575325 -39.827 20.176332
-84.472 -39.868999 20.051001
-84.362663 -39.678001 20.090666
-84.123001 -39.392399 20.136999
-83.985001 -39.285999 20.091
-83.804001 -39.09 20.133999
-83.735504 -39.057503 20.050499
-83.809998 -38.992001 20.191
-83.596001 -38.891998 20.073999
-83.393166 -38.652332 20.111
-83.285004 -38.429501 20.205
-83.039993 -38.297752 20.095501
-83.017998 -38.131001 20.205999
-82.889748 -38.106503 20.106001
-82.636253 -37.848251 20.091499
-82.629501 -37.705002 20.216499
-82.336662 -37.560665 20.067333
-82.375 -37.448502 20.209499
-82.218666 -37.343334 20.142334
-87.255997 -42.537998 20.393
-87.247498 -42.6465 20.257
-87.253998 -42.465 20.455
-87.13166 -42.400333 20.355333
-86.877876 -42.116249 20.383251
-86.829002 -41.949001 20.466
-86.653999 -41.905998 20.318001
-86.538498 -41.7005 20.432999
-86.430664 -41.612 20.374666
-86.237999 -41.521 20.263
-86.378998 -41.437 20.493
-86.097328 -41.315666 20.317167
-86.121002 -41.2085 20.466999
-85.967499 -41.057503 20.431
-85.704498 -40.837002 20.3685
-85.522995 -40.696999 20.3155
-85.316376 -40.442375 20.354624
-85.028503 -40.098999 20.417
-84.948502 -40.061001 20.331501
-84.912003 -39.938 20.410999
-84.652496 -39.7785 20.336
-84.631996 -39.661503 20.404499
-84.419998 -39.562 20.271
-84.357666 -39.386669 20.396666
-84.237 -39.327999 20.337
-84.143669 -39.144333 20.399332
-83.890999 -39.028999 20.278999
-84.001999 -38.936001 20.493
-83.897499 -38.905251 20.386
-83.749496 -38.852997 20.264999
-83.606667 -38.613003 20.388666
-83.484001 -38.556 20.285
-83.433006 -38.392334 20.397667
-83.176003 -38.271999 20.275999
-83.169128 -38.102249 20.415123
-82.861877 -37.820625 20.368874
-82.796997 -37.676998 20.417999
-82.658005 -37.577499 20.379002
-82.457504 -37.4175 20.3325
-87.268997 -42.314999 20.634001
-87.238251 -42.335503 20.552
-87.263504 -42.243999 20.672001
-87.164001 -42.075001 20.719
-86.867996 -41.896 20.58025
-86.845001 -41.738998 20.691999
-86.595001 -41.566669 20.620667
-86.584 -41.431 20.719002
-86.3535 -41.32 20.593
-86.279999 -41.167 20.690001
-86.195671 -41.078335 20.658998
-86.124001 -40.948002 20.698999
-85.87133 -40.825668 20.587667
-85.842323 -40.665665 20.678333
-85.656998 -40.613503 20.532
-85.521004 -40.351501 20.665501
-85.425667 -40.345669 20.560333
-85.330002 -40.208 20.589001
-85.152496 -40.051498 20.574001
-85.094002 -39.925999 20.636332
-84.992996 -39.831001 20.615
-84.8685 -39.663002 20.6705
-84.7145 -39.59 20.563499
-84.643997 -39.414001 20.658001
-84.474998 -39.368 20.538
-84.36483 -39.140999 20.642668
-84.128998 -38.855499 20.6805
-83.989998 -38.860001 20.556
-84.049004 -38.749001 20.695999
-83.847328 -38.654335 20.576666
-83.605003 -38.365669 20.615166
-83.517998 -38.144001 20.743999
-83.329498 -38.094002 20.607
-83.211998 -38.004002 20.535
-83.324997 -37.993 20.684
-83.145004 -37.873501 20.6035
-83.018997 -37.639 20.705
-82.884506 -37.630249 20.574499
-87.288002 -42.099331 20.858
-87.111328 -41.867001 20.888666
-86.970497 -41.836998 20.752998
-87.013 -41.674999 20.934999
-86.897003 -41.616337 20.874334
-86.666504 -41.353748 20.896999
-86.507004 -41.202999 20.867001
-86.3545 -41.058502 20.858501
-86.295006 -40.929001 20.907
-86.189003 -40.757999 20.965
-86.018997 -40.602001 20.976
-85.92733 -40.633335 20.827667
-85.921005 -40.451 20.9715
-85.666664 -40.365337 20.809334
-85.645668 -40.185669 20.954332
-85.395004 -40.056 20.812
-85.253998 -39.843498 20.901001
-85.184998 -39.849998 20.790001
-85.120499 -39.706001 20.862499
-84.807999 -39.523998 20.757999
-84.870499 -39.431503 20.88575
-84.716995 -39.304001 20.842499
-84.615501 -39.115501 20.942501
-84.479996 -39.052498 20.841499
-84.468002 -38.905502 20.969
-84.182999 -38.812 20.798
-84.140198 -38.661999 20.8848
-83.926003 -38.549999 20.767
-83.854668 -38.371998 20.894667
-83.749001 -38.323002 20.823999
-83.713997 -38.167336 20.918667
-83.460999 -38.055 20.785
-83.368698 -37.875099 20.847401
-87.150497 -41.664001 21.1185
-87.082001 -41.478001 21.218
-86.85434 -41.368999 21.094
-86.862 -41.222504 21.244499
-86.634003 -41.116001 21.088333
-86.425606 -40.854801 21.128399
-86.296997 -40.628502 21.202
-86.028 -40.539001 21.035999
-86.062744 -40.406998 21.17325
-85.683327 -40.095333 21.085833
-85.565002 -39.812 21.239
-85.40667 -39.828003 21.061998
-85.345001 -39.634003 21.174002
-85.149498 -39.579498 21.025
-84.970329 -39.338669 21.095335
-84.834747 -39.092751 21.179249
-84.592659 -38.927666 21.090666
-84.362328 -38.605331 21.181002
-84.222504 -38.577999 21.054001
-84.120499 -38.388 21.1255
-83.904839 -38.148167 21.152
-87.246506 -41.593498 21.303501
-87.264999 -41.493 21.398001
-87.105995 -41.341 21.392
-86.877602 -41.099602 21.372
-86.609001 -40.836002 21.345331
-86.585335 -40.702999 21.435667
-86.374001 -40.553001 21.365
-86.311996 -40.416 21.4555
-86.188004 -40.357002 21.354
-86.119995 -40.1735 21.457001
-85.862 -40.091999 21.292665
-85.814751 -39.925999 21.3785
-85.695 -39.723 21.461
-85.450996 -39.610332 21.330999
-85.397507 -39.4785 21.378
-85.171997 -39.304001 21.35
-85.084671 -39.178165 21.355833
-84.928001 -39.012001 21.358
-84.794754 -38.82325 21.414501
-84.688499 -38.865997 21.2575
-84.606003 -38.716 21.309
-84.499001 -38.594002 21.327999
-84.365837 -38.394333 21.380501
-84.311996 -38.229 21.478001
-87.339752 -41.359497 21.647501
-87.118675 -41.125668 21.621332
-87 -41.067001 21.566
-87.072998 -40.959 21.707001
-86.89901 -40.875332 21.608999
-86.664505 -40.590248 21.646626
-86.389 -40.312332 21.626665
-86.343506 -40.189499 21.679501
-86.219002 -40.117001 21.611
-86.063499 -39.931503 21.659
-85.931252 -39.81525 21.608749
-85.873001 -39.664001 21.698
-85.604996 -39.575001 21.5345
-85.601997 -39.394333 21.689001
-85.457001 -39.362499 21.560001
-85.186005 -39.083332 21.575666
-85.149666 -38.895332 21.702333
-84.912003 -38.820499 21.548
-84.882332 -38.630333 21.683334
-84.703499 -38.585999 21.538
-84.596336 -38.346664 21.671167
-84.489998 -38.311001 21.591999
-87.375 -41.174 21.862
-87.217003 -41.101002 21.750999
-87.287003 -40.984001 21.943001
-87.150009 -40.883503 21.882
-86.971001 -40.762001 21.799
-86.8545 -40.594498 21.858
-86.815498 -40.429501 21.960499
-86.658333 -40.391666 21.821669
-86.412666 -40.081997 21.875666
-86.322998 -39.944 21.896999
-86.134003 -39.820499 21.841999
-86.092003 -39.693748 21.9125
-85.853996 -39.584999 21.764999
-85.838341 -39.431 21.917665
-85.709999 -39.336502 21.860001
-85.600998 -39.174 21.906
-85.416664 -39.09 21.812998
-85.338661 -38.89967 21.9095
-85.252998 -38.724998 21.979
-85.016998 -38.549999 21.934
-84.977005 -38.619251 21.811501
-87.387497 -41.0695 22.019001
-87.390999 -40.9235 22.148499
-87.247498 -40.856003 22.040501
-87.283997 -40.719501 22.171
-87.089996 -40.593666 22.094
-86.924248 -40.361374 22.1535
-86.720001 -40.275002 22.004999
-86.604668 -40.098667 22.061666
-86.566002 -39.96233 22.156
-86.467499 -39.830498 22.1635
-86.251999 -39.549999 22.236
-86.190331 -39.617668 22.104998
-86.109001 -39.485001 22.129
-85.885002 -39.304497 22.0835
-85.842339 -39.188667 22.149
-85.742996 -39.098999 22.115
-85.573997 -38.873997 22.184
-85.444504 -38.849998 22.067001
-85.2845 -38.637001 22.105999
-87.367493 -40.676167 22.336166
-87.233002 -40.514 22.347
-87.147003 -40.350666 22.412001
-87.050499 -40.1745 22.456501
-86.845665 -40.115665 22.302332
-86.671799 -39.8298 22.396801
-86.474998 -39.653 22.365
-86.335663 -39.439667 22.424667
-86.154335 -39.356335 22.307999
-85.952003 -39.081497 22.372501
-85.938004 -38.970001 22.450001
-85.598 -38.814999 22.291
-87.426331 -40.384998 22.664335
-87.110603 -40.1208 22.597
-87.096001 -39.938999 22.737
-86.863335 -39.830334 22.625
-86.808998 -39.729 22.638
-86.670662 -39.593002 22.628668
-86.408501 -39.335999 22.608501
-86.133499 -39.093002 22.561501
-87.394394 -40.148998 22.878201
-87.227997 -40.073002 22.785
-87.334 -39.971001 22.987
-87.170502 -39.857498 22.896
-87.010002 -39.68 22.936001
-86.907501 -39.628998 22.853668
-86.855003 -39.456001 22.954
-86.574997 -39.365997 22.7805
-87.384254 -39.88475 23.112749
-87.137001 -39.610001 23.126665
-87.077499 -39.453499 23.206501
-86.871002 -39.359501 23.0795
