# .PCD v0.7 - Point Cloud Data file format
VERSION 0.7
FIELDS x y z
SIZE 4 4 4
TYPE F F F
COUNT 1 1 1
WIDTH 1546
HEIGHT 1
VIEWPOINT -18.2321 96.2205 -1.35163 -0.354149 -0.00701479 0.0211809 0.934923
POINTS 1546
DATA ascii
-85.102493 -81.345001 6.4554996
-84.847054 -81.371056 6.3473892
-84.693001 -81.467003 6.3416667
-85.146706 -81.172501 6.3576002
-85.970001 -80.807495 6.4534998
-86.145432 -80.556862 6.3924284
-85.911255 -80.694176 6.3500838
-86.569244 -80.294495 6.3804998
-86.350601 -80.42894 6.3751664
-79.371201 -84.613998 6.5589995
-80.171333 -84.294502 6.6808333
-79.871002 -84.330902 6.6300001
-79.641502 -84.451752 6.6261244
-80.612671 -84.024666 6.684
-80.405693 -84.098198 6.6301003
-80.157829 -84.119667 6.5709996
-79.943001 -84.239998 6.5679998
-80.879753 -83.855583 6.6910834
-80.647911 -83.888512 6.6050835
-80.422501 -83.963501 6.5054998
-81.124779 -83.605675 6.6098332
-80.870995 -83.667336 6.5336671
-81.806 -83.281754 6.6437502
-81.591888 -83.405334 6.6535554
-81.3386 -83.373802 6.6303
-81.243744 -83.465744 6.6079998
-81.905495 -83.147331 6.5903335
-81.647331 -83.178337 6.5123334
-82.139999 -82.867996 6.5019999
-82.969254 -82.537247 6.5974998
-82.652145 -82.584 6.612143
-82.49025 -82.664871 6.6149998
-83.319901 -82.323898 6.5946999
-83.095245 -82.463623 6.6068749
-82.782837 -82.459999 6.6404996
-83.796249 -82.028999 6.6052504
-83.616997 -82.14016 6.6021667
-83.436996 -82.248497 6.6335001
-83.922005 -81.9394 6.6153002
-84.579247 -81.530754 6.6127501
-84.380806 -81.654503 6.5792499
-84.091637 -81.703857 6.6607141
-83.912666 -81.744667 6.645
-85.162903 -81.369095 6.5764999
-84.821495 -81.366585 6.634584
-84.688499 -81.462997 6.6082501
-85.986694 -80.812599 6.6149001
-86.129494 -80.558502 6.6242499
-85.975502 -80.638504 6.5915003
-86.562996 -80.289001 6.6496673
-86.364525 -80.411407 6.6263962
-80.133003 -84.316498 6.9119997
-79.827759 -84.342369 6.8590631
-79.65239 -84.4375 6.8626008
-80.561996 -84.049004 6.7589998
-80.419998 -84.136002 6.7533326
-80.244003 -84.249496 6.75
-79.946503 -84.242752 6.9147501
-81.116829 -83.621162 6.8443332
-81.548248 -83.433998 6.8850002
-81.3246 -83.384697 6.8712997
-81.219872 -83.469002 6.8829999
-82.951996 -82.520996 6.8630004
-82.663246 -82.565689 6.8738751
-82.483002 -82.629501 6.9120002
-82.7845 -82.462494 6.9119997
-84.573669 -81.526176 6.8385005
-84.415886 -81.625771 6.8451667
-84.110374 -81.690125 6.8733754
-83.928497 -81.731995 6.9155002
-84.821854 -81.350708 6.8538566
-84.692375 -81.438629 6.8655
-86.017334 -80.799004 6.8856664
-85.964333 -80.855675 6.8506665
-86.111641 -80.557373 6.8796668
-85.956169 -80.621162 6.863833
-86.554504 -80.28125 6.9172502
-86.337967 -80.41729 6.8874049
-80.125999 -84.309494 7.09375
-79.822815 -84.337372 7.1380625
-79.635666 -84.431496 7.1538329
-79.93 -84.225998 7.0955
-81.058876 -83.654373 7.1261249
-81.531998 -83.417999 7.1914997
-81.291168 -83.397163 7.1766663
-81.165497 -83.496506 7.2010002
-83.042999 -82.500999 7.1360002
-82.655624 -82.558563 7.1236253
-82.852493 -82.465599 7.1012001
-83.954254 -81.901253 7.1125002
-84.530502 -81.537834 7.1525002
-84.416603 -81.612801 7.1341667
-84.123909 -81.659172 7.1547503
-83.947495 -81.723007 7.1440001
-84.83638 -81.326004 7.1061249
-84.667213 -81.453499 7.131
-86.018669 -80.800003 7.1343331
-86.086197 -80.564598 7.1216002
-85.942497 -80.609001 7.1388335
-86.549339 -80.276337 7.1446667
-86.354759 -80.398239 7.1098571
-86.186996 -80.498245 7.0950003
-86.667801 -80.202408 7.1141
-80.122337 -84.306 7.3596668
-79.8461 -84.316505 7.3648005
-79.9235 -84.219498 7.3659997
-81.051888 -83.619225 7.3427224
-81.514503 -83.400002 7.4144998
-81.313896 -83.371948 7.3713999
-81.158752 -83.489746 7.3825002
-82.63063 -82.563576 7.3881431
-83.024834 -82.483665 7.3670001
-82.826332 -82.450996 7.3548336
-83.953667 -81.901665 7.3386664
-84.52375 -81.531998 7.3909998
-84.386902 -81.619797 7.3683
-84.109375 -81.645004 7.3857503
-83.933891 -81.722229 7.3974442
-85.0755 -81.379501 7.4045
-84.834335 -81.323997 7.3528333
-84.674332 -81.440392 7.3680005
-86.016998 -80.798996 7.40275
-86.065506 -80.568703 7.3854003
-85.936996 -80.6045 7.4130001
-86.541245 -80.268997 7.41225
-86.344994 -80.393456 7.3774996
-86.181999 -80.493996 7.362
-86.761002 -80.135002 7.4154997
-86.646805 -80.204697 7.3793998
-80.118752 -84.302505 7.58325
-79.852097 -84.299095 7.6359
-79.664215 -84.404221 7.6436667
-79.917503 -84.213165 7.6358333
-81.056831 -83.644005 7.6245003
-81.358498 -83.366623 7.6298127
-81.150749 -83.471756 7.65975
-82.626335 -82.554359 7.6053329
-83.014168 -82.473671 7.6391664
-82.805748 -82.430756 7.5982504
-83.948242 -81.896759 7.6059999
-84.515663 -81.52433 7.6593337
-84.402733 -81.600334 7.6353331
-84.097839 -81.634338 7.6520004
-83.945801 -81.7108 7.6211996
-85.064751 -81.369751 7.5897503
-84.825836 -81.325668 7.6005411
-84.636429 -81.449287 7.6465716
-86.075394 -80.555405 7.6166
-85.933998 -80.601662 7.6331668
-86.536339 -80.265327 7.6389999
-86.390083 -80.357338 7.5916657
-86.210876 -80.468498 7.5836248
-86.755333 -80.130333 7.6348329
-86.6418 -80.199997 7.6189003
-80.112 -84.296333 7.8470001
-79.821503 -84.30883 7.8945832
-79.647743 -84.407082 7.886167
-79.910507 -84.207001 7.9075003
-81.054604 -83.690598 7.8641
-81.369789 -83.348572 7.8902855
-81.131332 -83.467918 7.9013333
-82.613503 -82.554001 7.8764
-83.008003 -82.468002 7.9124999
-82.794426 -82.42025 7.8505836
-82.694 -82.5 7.9380002
-83.934608 -81.837303 7.8740997
-84.511002 -81.519997 7.8847504
-84.358749 -81.619995 7.8549371
-84.092247 -81.629745 7.8978748
-83.943504 -81.7015 7.856833
-85.051666 -81.357666 7.8556666
-84.8218 -81.323097 7.8238997
-84.641998 -81.437965 7.8955336
-85.999001 -80.783997 7.9580002
-86.051552 -80.557281 7.8562222
-85.931999 -80.599998 7.9090004
-86.529747 -80.259506 7.9082499
-86.399254 -80.339417 7.8631668
-86.204002 -80.462166 7.8518333
-86.666168 -80.176331 7.8934999
-80.104248 -84.289001 8.1110001
-79.813751 -84.300003 8.1020002
-79.619171 -84.416496 8.1351671
-79.911003 -84.207504 8.0895004
-81.060173 -83.685829 8.1585007
-81.584503 -83.354752 8.0955
-81.35157 -83.330429 8.1040716
-81.124626 -83.461998 8.1287508
-82.472 -82.620003 8.1184998
-83.321381 -82.314125 8.1824999
-83.113503 -82.433601 8.122201
-82.790207 -82.405594 8.1274004
-82.690247 -82.496246 8.0810003
-83.780334 -82.036003 8.1850004
-83.600304 -82.138802 8.1785002
-83.450668 -82.246338 8.1643333
-83.921997 -81.86425 8.1410618
-84.506332 -81.515663 8.1513329
-84.35994 -81.606308 8.1438751
-84.084496 -81.622002 8.1435003
-83.946999 -81.667496 8.0930004
-85.101006 -81.311005 8.1341667
-84.808456 -81.323418 8.1120415
-84.629707 -81.435928 8.164072
-86.001495 -80.786003 8.0839996
-85.994003 -80.779495 8.2469997
-86.053749 -80.547249 8.0854998
-85.937752 -80.606499 8.0939999
-86.527 -80.257004 8.052
-86.393631 -80.334564 8.086812
-86.197876 -80.457123 8.0992498
-86.655769 -80.173279 8.1265001
-80.088501 -84.272163 8.347167
-79.820793 -84.287071 8.3809996
-79.644447 -84.417114 8.3671112
-80.567001 -84.018997 8.4049997
-80.411377 -84.101746 8.4248753
-80.219833 -84.227661 8.4318323
-79.909332 -84.206001 8.3550005
-80.848701 -83.827003 8.4108992
-80.6735 -83.939255 8.4179993
-81.058998 -83.68512 8.3824997
-81.636253 -83.328583 8.3803339
-81.331558 -83.326012 8.3609438
-81.122917 -83.459999 8.3768339
-81.879646 -83.188232 8.3956909
-82.57383 -82.549164 8.3503332
-82.490997 -82.640007 8.3450003
-83.325005 -82.277672 8.3656664
-83.135292 -82.386375 8.3745003
-82.839928 -82.427002 8.3724279
-82.683327 -82.489998 8.3459997
-83.641853 -82.061577 8.3882856
-83.419006 -82.211807 8.3713007
-83.872185 -81.890053 8.3937721
-84.501999 -81.512001 8.3149996
-84.359207 -81.593285 8.3809996
-84.076996 -81.61525 8.4101248
-83.935837 -81.657677 8.3643332
-85.166801 -81.295403 8.3570995
-84.912666 -81.283836 8.3388338
-84.647804 -81.413666 8.4066391
-85.100006 -81.092247 8.4709997
-85.994003 -80.779999 8.3730001
-85.294502 -80.9645 8.4510002
-86.055084 -80.530922 8.3609161
-85.926872 -80.612503 8.3838749
-86.368889 -80.338951 8.3567219
-86.190826 -80.450668 8.3470001
-86.637917 -80.171585 8.3931665
-79.257004 -84.810501 8.5795002
-79.10611 -84.895782 8.5910006
-78.989998 -84.751999 8.7119999
-79.572502 -84.608002 8.5755005
-79.375832 -84.653831 8.6205835
-79.112251 -84.686005 8.6745005
-80.070999 -84.253998 8.5780001
-79.809082 -84.286919 8.6392508
-79.629158 -84.407997 8.6318331
-79.440498 -84.468002 8.6844997
-80.519997 -84.008003 8.5500002
-80.352745 -84.083504 8.5625
-80.153603 -84.145195 8.6144009
-79.942749 -84.181122 8.6541252
-80.810005 -83.805664 8.5483332
-80.617836 -83.862587 8.6082506
-80.3619 -83.919662 8.6885662
-81.046501 -83.588745 8.6417503
-80.870399 -83.623901 8.6210995
-80.641495 -83.727501 8.6719999
-81.600502 -83.311996 8.5429993
-81.316429 -83.327713 8.6065712
-81.106552 -83.455849 8.6205502
-81.819901 -83.099304 8.6307001
-81.658432 -83.12677 8.6359005
-81.456497 -83.225494 8.6329994
-82.165497 -82.779495 8.6485004
-81.877167 -82.969162 8.6378336
-82.568748 -82.543999 8.616375
-82.38633 -82.653557 8.6363335
-82.236 -82.736496 8.6259995
-82.857445 -82.366051 8.6105003
-82.675255 -82.48275 8.6122503
-83.31044 -82.09037 8.5858345
-83.11113 -82.206268 8.5864334
-83.63665 -81.867302 8.6222496
-83.463257 -81.985992 8.6082497
-84.365631 -81.577568 8.6168747
-84.093666 -81.614174 8.6394997
-83.883133 -81.704544 8.5812664
-84.825417 -81.297333 8.6266251
-84.632446 -81.415504 8.6583128
-85.149506 -81.092224 8.638751
-84.964195 -81.204201 8.6339998
-85.350166 -80.966164 8.6328335
-86.042274 -80.531387 8.6317225
-85.902397 -80.621902 8.6005001
-86.373711 -80.328499 8.6057138
-86.18325 -80.444626 8.5943756
-86.632858 -80.169571 8.5964289
-79.042 -84.755501 8.8109999
-79.347328 -84.565338 8.8548326
-79.121582 -84.705254 8.8775835
-79.776001 -84.293747 8.9139996
-79.627007 -84.389626 8.8711872
-79.497002 -84.469002 8.8885002
-80.125809 -84.075874 8.8438749
-79.914001 -84.20771 8.8824291
-80.547249 -83.811249 8.8920002
-80.356918 -83.933044 8.8787088
-80.844337 -83.625992 8.8591108
-80.660446 -83.741165 8.8453894
-81.334999 -83.31575 8.8643751
-81.096375 -83.464249 8.9052505
-81.800667 -83.026001 8.8966665
-81.625725 -83.134064 8.8899441
-81.465996 -83.236 8.8383331
-82.175667 -82.789665 8.8546667
-81.891747 -82.9655 8.90625
-82.567802 -82.5439 8.8252001
-82.417397 -82.637802 8.8621502
-82.243835 -82.745667 8.8460007
-82.885803 -82.346138 8.8476934
-82.700897 -82.458496 8.8601999
-83.342834 -82.056725 8.8486109
-83.159889 -82.173279 8.847333
-83.625351 -81.878952 8.87325
-83.459999 -81.982338 8.8481665
-84.368896 -81.571503 8.8741999
-84.117142 -81.598709 8.8806429
-83.898056 -81.709892 8.8561106
-84.803497 -81.297623 8.8841248
-84.624916 -81.408081 8.9121666
-84.483253 -81.495247 8.9115
-85.129997 -81.093246 8.9106665
-84.943893 -81.209198 8.8654003
-85.308998 -80.979248 8.9067497
-86.051003 -80.518501 8.9117508
-85.900665 -80.613838 8.8575001
-86.348503 -80.334503 8.8652496
-86.178337 -80.440331 8.8416662
-86.614922 -80.169289 8.8589163
-79.022339 -84.753006 9.2383337
-79.352745 -84.552422 9.0943336
-79.139778 -84.683716 9.1267147
-79.770996 -84.288002 9.0960007
-79.636086 -84.377251 9.0860834
-79.4935 -84.466003 9.1122503
-80.106667 -84.078041 9.1080418
-79.917427 -84.194649 9.1157856
-80.538666 -83.803337 9.156333
-80.34478 -83.929054 9.0901117
-80.86219 -83.601791 9.1230955
-80.671371 -83.722046 9.1571255
-81.335701 -83.308197 9.0976009
-81.108124 -83.448624 9.1264162
-81.796173 -83.022163 9.073
-81.627998 -83.123886 9.120945
-81.45916 -83.2295 9.1518326
-82.169998 -82.785004 9.11975
-81.889496 -82.963501 9.0900002
-82.570717 -82.535278 9.0770559
-82.397423 -82.636169 9.1554995
-82.237328 -82.739662 9.1586676
-82.888474 -82.333069 9.1224003
-82.701248 -82.446503 9.1555834
-83.345001 -82.043747 9.1141663
-83.16378 -82.157646 9.1336784
-83.63089 -81.866837 9.1217232
-83.452667 -81.975998 9.1623335
-84.369667 -81.560844 9.1511669
-84.10788 -81.576569 9.1279373
-83.893227 -81.699303 9.1365004
-84.805 -81.287697 9.1365004
-84.611626 -81.410378 9.1273746
-84.478333 -81.490997 9.1380005
-85.0961 -81.107498 9.1169996
-84.945831 -81.199837 9.1613331
-86.064003 -80.503998 9.0369997
-85.900497 -80.604874 9.0848751
-86.375832 -80.305992 9.126071
-86.142143 -80.448288 9.1500711
-86.611 -80.164124 9.0842495
-78.999001 -84.763 9.3649998
-79.346558 -84.546112 9.3445549
-79.151497 -84.668503 9.3583336
-79.764336 -84.282661 9.3676672
-79.610832 -84.380417 9.3489161
-79.476891 -84.462669 9.3536673
-80.10125 -84.07325 9.3419161
-79.89325 -84.201126 9.3626242
-80.533005 -83.798004 9.3792496
-80.357628 -83.911591 9.354454
-80.892143 -83.574425 9.3922863
-80.704056 -83.6922 9.3619003
-81.351837 -83.289833 9.3388329
-81.14827 -83.414368 9.3668184
-81.653542 -83.096268 9.36975
-81.454254 -83.224747 9.3900003
-82.166328 -82.782005 9.3443336
-81.848839 -82.974228 9.3599443
-82.558723 -82.530449 9.3409452
-82.369194 -82.64431 9.4109716
-82.228745 -82.73175 9.38375
-82.885689 -82.323174 9.3694448
-82.694496 -82.440498 9.387125
-83.335381 -82.044373 9.3626251
-83.127495 -82.171997 9.3690557
-83.759247 -81.773499 9.3622503
-83.596222 -81.880112 9.3580561
-83.446503 -81.970001 9.3875008
-84.373001 -81.548996 9.3946257
-84.075645 -81.57708 9.3897858
-83.901497 -81.682251 9.3999996
-84.774246 -81.300003 9.34025
-84.60836 -81.401138 9.3796005
-84.471001 -81.484497 9.4045
-85.111954 -81.088745 9.3783998
-84.922073 -81.205063 9.3939342
-85.334335 -80.946892 9.3588896
-85.891998 -80.597252 9.3529158
-86.310173 -80.340668 9.3456659
-86.115891 -80.458267 9.3714333
-86.650948 -80.126282 9.3535557
-86.448753 -80.247498 9.4115
-79.316338 -84.552162 9.5923338
-79.757835 -84.276001 9.6383333
-79.603249 -84.373314 9.6130629
-79.442329 -84.472 9.6613331
-80.084648 -84.06897 9.6376085
-79.903183 -84.183182 9.6402502
-80.562996 -83.768669 9.6488333
-80.367722 -83.892616 9.6254997
-80.885666 -83.568748 9.5933342
-80.702667 -83.678673 9.6521673
-81.342499 -83.280746 9.6241245
-81.135796 -83.413101 9.5874586
-81.650078 -83.088417 9.5873747
-81.443665 -83.214996 9.6543341
-82.157249 -82.773254 9.6097498
-81.845558 -82.965004 9.6376667
-82.534172 -82.529999 9.6463337
-82.366669 -82.635452 9.6444435
-82.223663 -82.726997 9.6489992
-82.862999 -82.324715 9.6278563
-82.671997 -82.443855 9.641428
-83.314667 -82.042244 9.6534166
-83.085999 -82.188164 9.6397209
-83.754059 -81.762665 9.6381121
-83.588066 -81.871849 9.6190004
-83.440002 -81.965004 9.6536665
-84.356499 -81.549255 9.6022491
-84.069069 -81.570999 9.6072149
-83.888496 -81.681503 9.5949001
-84.65593 -81.360291 9.6207142
-84.4655 -81.4795 9.5895004
-85.093529 -81.085472 9.6298609
-84.912918 -81.198662 9.6537504
-85.329414 -80.942749 9.5854998
-85.943336 -80.557503 9.6050005
-86.320602 -80.318298 9.6297998
-86.123726 -80.441475 9.6375551
-86.637421 -80.124672 9.5942507
-86.45517 -80.234169 9.6326666
-78.988998 -84.753494 9.8099995
-79.315498 -84.541878 9.8466244
-79.133972 -84.638779 9.9165277
-79.750999 -84.269997 9.868
-79.619087 -84.347618 9.8605242
-79.425835 -84.454994 9.9038343
-80.084305 -84.075302 9.9119005
-79.874641 -84.184143 9.8834991
-80.572754 -83.779747 9.93575
-80.37075 -83.872742 9.8575001
-80.221252 -83.962494 9.8532505
-80.857338 -83.579674 9.8630009
-80.696838 -83.691338 9.8965006
-81.334373 -83.273376 9.8888741
-81.14917 -83.387283 9.8472786
-80.960007 -83.473999 9.9384995
-81.886002 -83.019501 9.9460001
-81.647446 -83.085838 9.853611
-81.437996 -83.209 9.8986664
-82.350998 -82.7985 9.9860001
-82.162331 -82.778999 9.8353329
-81.812675 -82.964333 9.8273325
-82.529999 -82.681999 9.9899998
-82.403 -82.616409 9.8915329
-82.205002 -82.709 9.8519993
-83.10775 -82.311501 9.9227505
-82.82666 -82.32708 9.8535833
-82.643669 -82.449585 9.9056664
-83.554001 -82.042343 9.9436665
-83.353004 -82.099083 9.8964167
-83.148796 -82.147202 9.8279991
-82.940002 -82.225998 9.8304996
-83.858498 -81.828125 9.9193745
-83.617928 -81.870491 9.8369284
-83.403 -81.936333 9.8243332
-84.351776 -81.544777 9.8502226
-84.10775 -81.534584 9.8641663
-83.926872 -81.636002 9.847126
-85.077499 -81.267502 9.9554996
-84.815994 -81.252502 9.8559999
-84.622856 -81.371529 9.8804998
-84.459663 -81.474998 9.8629999
-85.375 -81.099998 9.913167
-85.164398 -81.186996 9.9022999
-84.87738 -81.194382 9.8889999
-85.319748 -80.905502 9.7672501
-86.024506 -80.691002 9.9020004
-85.922668 -80.520668 9.8516665
-86.327782 -80.303886 9.8478889
-86.105629 -80.444565 9.859437
-85.940002 -80.499001 9.7709999
-86.624115 -80.123116 9.8496666
-86.473495 -80.211502 9.9104996
-79.563499 -84.542 10.118999
-79.422333 -84.628662 10.128834
-79.247246 -84.742004 10.118
-79.657898 -84.344849 10.138651
-80.335556 -84.048531 10.116279
-80.1465 -84.171997 10.166167
-79.874435 -84.168716 10.118072
-80.779663 -83.777672 10.098
-80.597748 -83.892372 10.10825
-80.477753 -83.968002 10.11625
-81.068626 -83.586502 10.094875
-80.927124 -83.686378 10.07925
-81.295326 -83.285667 10.150332
-81.144249 -83.368919 10.110167
-82.042 -83.000999 10.03
-81.872276 -83.095711 10.065429
-81.672508 -83.217278 10.095278
-81.39917 -83.229332 10.150667
-82.564003 -82.833 10.236
-82.319672 -82.823997 10.063834
-82.527 -82.68 10.153
-82.477501 -82.570251 10.129
-83.083252 -82.333832 10.089583
-82.804749 -82.307167 10.1715
-82.635124 -82.443748 10.132063
-83.563499 -82.0345 10.042999
-83.401245 -82.136749 10.0415
-83.236 -82.234001 10.048
-83.916496 -81.812675 10.0715
-83.705498 -81.945999 10.0495
-84.341873 -81.536247 10.168499
-84.108505 -81.525101 10.1112
-83.959999 -81.625877 10.090375
-85.058998 -81.250999 10.078
-84.625267 -81.360588 10.133045
-84.452332 -81.468338 10.137166
-85.052505 -81.244995 10.2025
-84.84333 -81.221672 10.1465
-86.022003 -80.689255 10.08925
-85.952499 -80.511749 10.08275
-86.322609 -80.299278 10.081834
-86.129494 -80.416397 10.142111
-86.617912 -80.117828 10.104083
-86.470161 -80.208832 10.130166
-79.665001 -84.353699 10.366749
-80.119247 -84.180496 10.39025
-79.869194 -84.162811 10.364625
-81.070503 -83.588661 10.360833
-81.599998 -83.255005 10.359
-81.290253 -83.281494 10.41625
-81.13839 -83.363449 10.343444
-81.380127 -83.210121 10.394125
-82.519997 -82.673492 10.419001
-82.491501 -82.525757 10.42
-83.019341 -82.364006 10.342
-82.815247 -82.281754 10.414499
-82.634529 -82.426971 10.409417
-83.947334 -81.784668 10.348666
-84.331627 -81.527 10.414375
-84.076996 -81.532494 10.3585
-83.955666 -81.622505 10.357833
-84.764 -81.262497 10.3565
-84.614326 -81.35405 10.398001
-84.443497 -81.460495 10.412
-84.123001 -81.498001 10.373
-85.029755 -81.223495 10.38475
-84.850334 -81.209167 10.380501
-86.014992 -80.683006 10.359
-85.973328 -80.532005 10.354
-86.350502 -80.2705 10.347167
-86.134651 -80.403595 10.3597
-86.609444 -80.110558 10.345445
-86.460999 -80.200996 10.4065
-79.640892 -84.363304 10.64575
-79.859093 -84.163414 10.597583
-81.069374 -83.588501 10.5865
-81.600998 -83.255997 10.524
-81.284332 -83.276001 10.641666
-81.131386 -83.357338 10.656557
-81.592003 -83.248001 10.646999
-81.366402 -83.208801 10.624001
-82.513504 -82.667496 10.6025
-82.499496 -82.5345 10.605499
-83.011253 -82.356247 10.610001
-82.798996 -82.294006 10.644375
-82.623993 -82.423088 10.592333
-83.942001 -81.780998 10.552999
-84.298752 -81.526001 10.615
-84.055496 -81.538498 10.579
-83.9571 -81.647003 10.5956
-84.754997 -81.255165 10.6435
-84.589218 -81.361145 10.607215
-84.406296 -81.473167 10.6415
-84.120331 -81.495827 10.632833
-84.920326 -81.178665 10.644667
-86.007751 -80.676758 10.586
-85.986 -80.544502 10.58325
-86.34317 -80.264008 10.595501
-86.145294 -80.386398 10.637625
-86.601997 -80.103996 10.6145
-86.455254 -80.196503 10.592751
-79.630501 -84.376083 10.893833
-79.853279 -84.161163 10.849611
-79.723999 -84.242996 10.926
-81.079605 -83.587997 10.8368
-81.276253 -83.26825 10.906
-81.129616 -83.349503 10.880555
-81.587669 -83.24366 10.850667
-81.366005 -83.185295 10.881401
-82.510674 -82.58567 10.919334
-82.473 -82.508003 10.808
-83.005501 -82.351501 10.7935
-82.817253 -82.320168 10.893083
-82.609894 -82.418228 10.870888
-84.097755 -81.525497 10.83675
-83.950836 -81.646248 10.849833
-84.608253 -81.338387 10.862642
-84.413803 -81.457298 10.8808
-84.175995 -81.494499 10.91625
-84.89138 -81.151871 10.91025
-84.746002 -81.247498 10.972
-86.013206 -80.615601 10.8406
-85.998001 -80.668999 10.936
-86.31266 -80.271164 10.849668
-86.166435 -80.362427 10.868285
-85.989342 -80.437668 10.849334
-86.750999 -80.011002 10.761
-86.635834 -80.072495 10.861279
-86.414406 -80.206802 10.8746
-79.633125 -84.394249 11.126249
-80.112 -84.120338 11.142499
-79.845497 -84.15519 11.1325
-79.669998 -84.243752 11.144875
-81.083252 -83.547745 11.11825
-81.2715 -83.263504 11.0895
-81.101006 -83.354668 11.150417
-81.581001 -83.237244 11.117001
-81.355339 -83.186752 11.135083
-82.5196 -82.603203 11.1404
-82.5 -82.654999 11.135
-82.867432 -82.315651 11.120142
-82.60144 -82.410316 11.125062
-83.950668 -81.75267 11.039001
-84.041 -81.526001 11.1145
-83.94928 -81.610054 11.129444
-84.602249 -81.332626 11.091875
-84.419899 -81.445869 11.109966
-84.161873 -81.480629 11.089499
-84.851501 -81.160057 11.140057
-84.744247 -81.246002 11.097
-86.046005 -80.601753 11.089
-85.994995 -80.666252 11.082001
-86.29467 -80.272339 11.162999
-86.147446 -80.361664 11.156779
-85.97625 -80.426003 11.1175
-86.609428 -80.079285 11.102144
-86.401253 -80.207253 11.08475
-86.735001 -79.997002 11.177
-79.638252 -84.444626 11.41525
-80.085754 -84.093376 11.37425
-79.871681 -84.131622 11.393938
-79.671898 -84.234901 11.3696
-81.079002 -83.543663 11.342667
-81.264832 -83.258171 11.361833
-81.112198 -83.350296 11.4292
-81.572334 -83.228996 11.340667
-81.352753 -83.184875 11.403875
-82.546997 -82.583748 11.4135
-82.498001 -82.653999 11.4035
-83.066498 -82.298004 11.4395
-82.845665 -82.292747 11.355999
-82.657219 -82.376854 11.384286
-82.499001 -82.428001 11.45
-84.03167 -81.517326 11.34
-83.947411 -81.644501 11.344083
-84.613571 -81.312721 11.360001
-84.414116 -81.43689 11.358445
-84.14167 -81.462418 11.358085
-85.108498 -81.192505 11.418
-84.845711 -81.151283 11.393071
-86.051666 -80.608002 11.360001
-86.288254 -80.266747 11.39075
-86.131996 -80.363075 11.404856
-85.967339 -80.418663 11.344666
-86.581329 -80.087006 11.342945
-86.395836 -80.203163 11.354
-86.765747 -79.972496 11.398001
-86.735001 -79.998001 11.26
-79.63784 -84.444832 11.639999
-80.153 -84.109001 11.5945
-79.85659 -84.128944 11.597138
-79.654129 -84.232529 11.631
-81.071251 -83.536003 11.60775
-81.261002 -83.255005 11.58
-81.11937 -83.346992 11.6325
-81.805252 -83.086746 11.746
-81.577499 -83.206375 11.676625
-81.327667 -83.196747 11.641083
-82.251495 -82.817505 11.7205
-82.099503 -82.895004 11.7445
-82.551338 -82.588661 11.640334
-82.447502 -82.692749 11.656751
-83.057991 -82.290001 11.644333
-82.84375 -82.268372 11.612499
-82.658142 -82.369926 11.617929
-82.498505 -82.427505 11.5945
-83.362503 -82.098251 11.72175
-83.160004 -82.225006 11.729
-83.841003 -81.801003 11.691
-83.64325 -81.930756 11.722167
-84.023254 -81.510254 11.60725
-83.945 -81.642998 11.612438
-84.610237 -81.301834 11.6198
-84.407921 -81.431419 11.5855
-84.135597 -81.445801 11.6128
-85.366501 -81.039993 11.686501
-85.153816 -81.174728 11.640041
-84.831329 -81.154503 11.587667
-85.547501 -80.927505 11.6905
-85.475998 -80.972 11.684
-86.046494 -80.603745 11.587
-85.982758 -80.656754 11.579
-86.280334 -80.260002 11.659333
-86.134888 -80.351334 11.653
-85.962746 -80.414505 11.613251
-86.584419 -80.072922 11.627083
-86.394501 -80.192253 11.603999
-86.762421 -79.96167 11.6975
-86.75 -79.976006 11.545333
-79.5205 -84.501999 11.912
-79.39875 -84.578751 11.898251
-79.241997 -84.68 11.865
-79.620003 -84.436501 11.911
-80.270164 -84.035164 11.876167
-80.147331 -84.104332 11.867667
-79.8452 -84.123482 11.855852
-79.658089 -84.224083 11.897083
-80.590218 -83.84343 11.853999
-80.397995 -83.950127 11.912624
-81.052628 -83.560371 11.813375
-80.872002 -83.639175 11.874167
-80.746498 -83.730499 11.9505
-81.106575 -83.335213 11.892785
-80.984001 -83.447998 11.983
-81.848824 -83.044167 11.843834
-81.609138 -83.151428 11.886286
-81.346428 -83.169296 11.903572
-81.25 -83.245003 11.868
-82.2715 -82.781006 11.8315
-82.122498 -82.871399 11.8629
-81.922585 -82.887001 11.905999
-81.647667 -82.956337 11.972333
-82.554001 -82.592003 11.847
-82.37133 -82.643364 11.886001
-82.127998 -82.693001 11.951
-83.050995 -82.283997 11.848
-82.820503 -82.261246 11.8545
-82.672371 -82.352875 11.86725
-82.48317 -82.43084 11.862834
-83.353798 -82.084305 11.839766
-83.122253 -82.126877 11.900625
-82.878662 -82.186501 11.924832
-83.810333 -81.810333 11.831
-83.586876 -81.893875 11.866625
-83.345337 -81.88533 11.956668
-83.197998 -81.971001 11.943
-84.016663 -81.504333 11.859668
-83.888756 -81.617508 11.866437
-83.625336 -81.704002 11.931333
-84.589737 -81.308701 11.8706
-84.405876 -81.423248 11.853
-84.1063 -81.451096 11.871099
-85.307999 -81.068748 11.772751
-85.043999 -81.022003 11.93
-84.854866 -81.136772 11.86959
-85.526001 -80.906998 11.814
-85.366669 -80.852165 11.884666
-85.14579 -80.940041 11.864542
-86.041 -80.598999 11.772
-85.980003 -80.653999 11.765
-86.27475 -80.256248 11.8875
-86.133911 -80.341415 11.8955
-85.937752 -80.433876 11.839749
-86.592003 -80.061668 11.842167
-86.392578 -80.181587 11.8475
-86.753998 -79.962502 11.855
-86.746994 -79.956497 11.936
-78.789001 -84.790001 12.229
-78.720001 -84.824997 12.243
-79.425003 -84.519997 12.033
-79.103996 -84.565247 12.162251
-78.987 -84.653 12.158
-79.545502 -84.319 12.09425
-79.378777 -84.416779 12.128333
-79.847664 -84.111168 12.135778
-79.647339 -84.229332 12.140889
-80.331581 -83.802925 12.124832
-80.14875 -83.906166 12.10675
-80.821503 -83.505501 12.183001
-80.651001 -83.598442 12.112
-80.457245 -83.725998 12.10875
-81.104202 -83.321205 12.0983
-80.909668 -83.437912 12.142667
-81.557503 -83.040833 12.143333
-81.396873 -83.142326 12.107124
-81.244003 -83.238998 12.091
-81.894669 -82.831078 12.143001
-81.708801 -82.949402 12.12
-82.324005 -82.554504 12.098125
-82.129593 -82.676758 12.105548
-82.795998 -82.267746 12.0975
-82.631508 -82.369499 12.105
-82.444504 -82.483505 12.09775
-83.070938 -82.091942 12.121188
-82.905998 -82.199005 12.08575
-83.537903 -81.799904 12.124101
-83.376701 -81.903397 12.0809
-83.246002 -81.98233 12.144
-84.014999 -81.503494 12.1215
-83.852066 -81.600281 12.154715
-83.680664 -81.710724 12.095222
-84.588753 -81.299751 12.103875
-84.411209 -81.409081 12.089791
-84.115494 -81.438873 12.105125
-85.037003 -81.015747 12.11625
-84.860519 -81.130081 12.097105
-84.746506 -81.192505 12.245
-85.326576 -80.834152 12.134572
-85.179665 -80.92617 12.130055
-86.118782 -80.337555 12.149222
-85.940872 -80.451248 12.110626
-86.584702 -80.049507 12.1397
-86.337624 -80.204048 12.127191
-86.754333 -79.945999 12.163
-74.410004 -87.519997 12.432
-74.132996 -87.689003 12.466
-74.752998 -87.297997 12.433
-74.580246 -87.408249 12.45625
-74.477997 -87.477997 12.434
-74.875244 -87.222748 12.4255
-78.325394 -85.058205 12.3777
-78.217255 -85.123253 12.39225
-78.773758 -84.773254 12.412
-78.61763 -84.877808 12.361876
-78.445 -84.982254 12.39925
-79.108246 -84.570671 12.346084
-78.900581 -84.700691 12.36675
-79.548668 -84.292999 12.358333
-79.349442 -84.417999 12.352722
-79.866997 -84.094002 12.3734
-79.658249 -84.225754 12.409
-80.362 -83.784805 12.365999
-80.133591 -83.928146 12.376101
-80.817001 -83.501999 12.387
-80.630348 -83.616295 12.3489
-80.455162 -83.724998 12.347667
-81.112335 -83.313911 12.363625
-80.901123 -83.443329 12.406
-81.552124 -83.036255 12.409625
-81.373924 -83.14917 12.388667
-81.239662 -83.235329 12.356999
-81.869255 -82.835167 12.397334
-81.687202 -82.950294 12.381399
-82.333504 -82.550499 12.3455
-82.150124 -82.662666 12.362145
-82.775841 -82.266838 12.359166
-82.605186 -82.376541 12.345545
-82.437996 -82.477333 12.363999
-83.101166 -82.065826 12.378499
-82.906219 -82.185417 12.362082
-83.556999 -81.778252 12.34725
-83.371292 -81.894333 12.351501
-83.248497 -81.966995 12.448999
-83.876778 -81.575836 12.359361
-83.665329 -81.709496 12.373167
-84.586304 -81.290688 12.351611
-84.403008 -81.402077 12.348
-84.089561 -81.443665 12.35125
-85.030334 -81.010666 12.344333
-84.898499 -81.092751 12.375501
-84.741501 -81.188004 12.4115
-85.365501 -80.802505 12.3727
-85.187302 -80.913399 12.3611
-86.112671 -80.332664 12.404666
-85.932503 -80.444199 12.3545
-86.594292 -80.036598 12.3569
-86.355225 -80.18425 12.356479
-86.723999 -79.954994 12.346001
-71.664001 -89.224998 12.733
-74.369797 -87.532494 12.634501
-74.138809 -87.681068 12.620867
-74.750999 -87.296501 12.5535
-74.600853 -87.388283 12.660857
-74.471497 -87.471497 12.615
-75.057381 -87.099998 12.599626
-74.903801 -87.204697 12.611567
-78.010002 -85.253998 12.734
-77.933502 -85.2985 12.592
-78.306694 -85.0616 12.6178
-78.212997 -85.119003 12.657333
-78.7705 -84.770996 12.596001
-78.632439 -84.858887 12.651556
-78.458748 -84.965332 12.635333
-79.10244 -84.565689 12.610625
-78.880394 -84.704208 12.623899
-79.543747 -84.288498 12.58375
-79.355789 -84.405952 12.60631
-79.872314 -84.083565 12.612937
-79.67025 -84.209671 12.647208
-80.348129 -83.782631 12.596499
-80.137566 -83.915436 12.594375
-80.637428 -83.601814 12.624749
-80.446999 -83.717003 12.660333
-81.104912 -83.307335 12.636292
-80.893753 -83.441376 12.593376
-81.539177 -83.030724 12.643611
-81.367332 -83.143166 12.599167
-81.233246 -83.2295 12.58175
-81.855247 -82.835625 12.627251
-81.681107 -82.944901 12.618899
-82.325127 -82.542503 12.611875
-82.101555 -82.682495 12.633279
-82.755333 -82.266006 12.656334
-82.633293 -82.346764 12.588733
-82.467003 -82.452751 12.58625
-83.098495 -82.055702 12.6139
-82.894852 -82.179893 12.6203
-83.569 -81.760498 12.586
-83.415573 -81.85553 12.618367
-83.24025 -81.968338 12.583084
-83.867996 -81.567863 12.666143
-83.689697 -81.679604 12.6364
-84.559753 -81.295876 12.595751
-84.393745 -81.393875 12.615376
-84.100128 -81.425621 12.598624
-83.997002 -81.487663 12.656001
-85.024002 -81.004997 12.6125
-84.872871 -81.097 12.631001
-84.707199 -81.202896 12.612
-85.348503 -80.7985 12.647167
-85.171211 -80.909286 12.668249
-86.10511 -80.326332 12.645556
-85.926254 -80.439003 12.607375
-86.570007 -80.037498 12.6366
-86.397118 -80.145393 12.6265
-86.246498 -80.231995 12.6945
-86.694244 -79.963745 12.606001
-71.555 -89.289505 12.9645
-71.452003 -89.353996 12.948
-72.000999 -89.016998 12.965
-71.879669 -89.088791 12.868584
-71.656998 -89.217003 12.974
-73.162003 -88.282997 12.892
-73.306999 -88.197998 12.89
-73.235001 -88.238998 12.908
-73.814499 -87.875 12.96
-74.326859 -87.558472 12.891905
-74.110603 -87.688599 12.883
-74.639748 -87.354752 12.887062
-74.466003 -87.466003 12.837667
-75.057495 -87.100998 12.842999
-74.902252 -87.193756 12.903126
-75.570999 -86.763 12.986
-75.323257 -86.942497 12.95825
-77.940002 -85.285332 12.866666
-77.685883 -85.442123 12.884125
-78.314995 -85.048599 12.873999
-78.138832 -85.157494 12.912999
-78.765167 -84.765999 12.866666
-78.624229 -84.854172 12.889366
-78.454254 -84.96125 12.9075
-79.094414 -84.561035 12.846001
-78.900269 -84.68309 12.8772
-79.537331 -84.282669 12.848
-79.361626 -84.393211 12.847835
-79.867775 -84.075951 12.859001
-79.675835 -84.197083 12.885083
-80.346336 -83.775002 12.849111
-80.145546 -83.900803 12.842501
-80.657028 -83.581474 12.861531
-80.443748 -83.7145 12.8865
-81.096375 -83.2995 12.908626
-80.886375 -83.434334 12.865624
-81.520248 -83.035248 12.8995
-81.359222 -83.136009 12.853832
-81.222664 -83.219666 12.846334
-81.879387 -82.809212 12.889619
-81.655846 -82.950073 12.893929
-82.316833 -82.534248 12.843917
-82.1465 -82.64325 12.855125
-82.645538 -82.327667 12.848408
-82.459007 -82.445999 12.852834
-83.1064 -82.040001 12.873999
-82.9086 -82.161194 12.881
-83.5625 -81.755501 12.811501
-83.380432 -81.866432 12.869573
-83.235497 -81.955498 12.899
-83.854904 -81.565292 12.916499
-83.6455 -81.696419 12.872139
-84.552162 -81.289497 12.843833
-84.367996 -81.397003 12.841111
-84.093666 -81.419502 12.846
-83.988998 -81.480751 12.8815
-85.018997 -81.000999 12.756
-84.881287 -81.084213 12.882643
-84.67363 -81.21225 12.861626
-85.341743 -80.793129 12.898125
-85.150673 -80.911613 12.887417
-86.113815 -80.307312 12.895374
-85.919495 -80.433662 12.842
-86.577103 -80.022903 12.862101
-86.394104 -80.133896 12.8638
-86.243248 -80.2295 12.8805
-70.332504 -90.063499 13.1145
-70.768005 -89.777496 13.1535
-70.608994 -89.874496 13.2465
-70.485001 -89.947998 13.198
-70.834503 -89.7295 13.187
-71.55175 -89.286125 13.096375
-71.448997 -89.349747 13.088751
-72.002998 -89.018997 13.044
-71.850288 -89.098854 13.109643
-71.651001 -89.209 13.093
-72.2005 -88.884506 13.1905
-72.743248 -88.534248 13.183001
-73.095779 -88.317558 13.171666
-72.913498 -88.427673 13.180667
-73.535751 -88.035667 13.177418
-73.36525 -88.147247 13.161001
-73.2295 -88.232498 13.190001
-74.002998 -87.788002 13.012
-73.863602 -87.836899 13.125601
-73.679794 -87.95079 13.118599
-74.3144 -87.557304 13.168302
-74.205246 -87.624496 13.117749
-74.611374 -87.368629 13.147875
-74.440498 -87.467369 13.16975
-75.087006 -87.075005 13.127666
-74.891495 -87.192169 13.112666
-75.568336 -86.760002 13.150333
-75.345322 -86.903725 13.11394
-75.900902 -86.5522 13.1793
-75.685173 -86.687172 13.143083
-76.265503 -86.347 13.106
-76.098999 -86.435669 13.1295
-76.660149 -86.076851 13.174571
-76.399002 -86.238998 13.188
-77.158005 -85.764 13.187
-76.877998 -85.935501 13.1945
-77.363693 -85.634804 13.150701
-77.228996 -85.719002 13.21
-78.010002 -85.254997 13.062
-77.940392 -85.271889 13.13528
-77.683662 -85.440163 13.148666
-78.303001 -85.047623 13.104375
-78.202667 -85.109337 13.144668
-78.757332 -84.758507 13.138
-78.627373 -84.839249 13.129625
-78.446503 -84.953751 13.089375
-79.078949 -84.558723 13.154334
-78.894768 -84.674965 13.117201
-79.531998 -84.277496 13.052
-79.364998 -84.378891 13.138057
-79.212006 -84.472504 13.171
-79.869667 -84.061836 13.09975
-79.652107 -84.198807 13.122722
-80.323341 -83.777832 13.105334
-80.147705 -83.88829 13.102875
-80.635696 -83.581497 13.136499
-80.418503 -83.717255 13.173
-81.090057 -83.293434 13.092375
-80.852623 -83.442574 13.123938
-81.378578 -83.111946 13.121976
-81.217255 -83.214996 13.1145
-81.860146 -82.811852 13.116358
-81.637062 -82.948372 13.122812
-82.304123 -82.522873 13.154125
-82.134148 -82.626671 13.13723
-81.9515 -82.75 13.122499
-82.637352 -82.320427 13.133142
-82.452171 -82.440338 13.099
-83.088501 -82.035126 13.104625
-82.85006 -82.184891 13.105048
-83.381866 -81.844849 13.100444
-83.193497 -81.971001 13.11575
-83.833183 -81.560822 13.133563
-83.62043 -81.695358 13.130857
-84.544632 -81.283379 13.111375
-84.370804 -81.378601 13.0961
-84.136749 -81.403831 13.143417
-83.971672 -81.464668 13.147334
-84.853462 -81.085457 13.101418
-84.646332 -81.21566 13.134666
-85.321373 -80.789246 13.104625
-85.129868 -80.913071 13.103
-84.999001 -80.983002 13.17
-85.42334 -80.712006 13.099334
-86.124191 -80.290604 13.1276
-85.919601 -80.38839 13.131
-86.524994 -80.042 13.156001
-86.397087 -80.119789 13.148458
-86.233002 -80.221001 13.148999
-70.319 -90.047157 13.354833
-70.120682 -90.167633 13.362182
-70.761665 -89.77066 13.355
-70.619667 -89.855995 13.392333
-70.452332 -89.965492 13.352166
-70.828506 -89.722504 13.348
-71.54525 -89.278748 13.338375
-71.442665 -89.34333 13.349999
-71.893501 -89.068901 13.3746
-71.650665 -89.210999 13.363833
-72.124832 -88.91758 13.404334
-71.982002 -88.996002 13.447
-72.738495 -88.528999 13.403999
-73.110031 -88.298965 13.381866
-72.885635 -88.438599 13.374232
-73.558502 -88.016495 13.4045
-73.369911 -88.132004 13.374563
-73.223999 -88.226501 13.41275
-73.830872 -87.848373 13.356874
-73.657898 -87.952209 13.3782
-74.252998 -87.586998 13.316
-74.082703 -87.679893 13.3547
-74.633125 -87.348633 13.389875
-74.421127 -87.475754 13.381374
-75.086426 -87.057365 13.359714
-74.895638 -87.174446 13.361364
-75.563248 -86.755249 13.414249
-75.409554 -86.854103 13.350723
-75.249252 -86.955246 13.410999
-75.881584 -86.560249 13.383791
-75.688416 -86.667389 13.411278
-76.322998 -86.283836 13.375333
-76.146103 -86.387245 13.3606
-75.941002 -86.460999 13.473
-76.752502 -86.046501 13.4465
-76.590996 -86.0923 13.421701
-76.446831 -86.202332 13.342999
-77.104507 -85.805435 13.4061
-76.88385 -85.931244 13.416
-77.605003 -85.542 13.351
-77.388626 -85.617493 13.318
-77.229248 -85.692505 13.4065
-78.070999 -85.321999 13.479
-77.837669 -85.39267 13.420001
-77.6315 -85.446327 13.361835
-78.293831 -85.038666 13.348166
-78.183998 -85.089668 13.388
-77.945999 -85.25 13.3325
-78.834007 -84.839333 13.466
-78.599586 -84.857758 13.371917
-78.441002 -84.948334 13.354833
-79.297997 -84.501999 13.428
-79.098999 -84.584587 13.411251
-78.900993 -84.666412 13.335
-78.733002 -84.733002 13.366
-79.582253 -84.362747 13.43275
-79.392197 -84.357399 13.3452
-79.204506 -84.464996 13.292999
-80.18 -84.018997 13.434
-79.861549 -84.05722 13.354611
-79.603584 -84.19059 13.363083
-80.546677 -83.78334 13.443
-80.344101 -83.83931 13.3903
-80.151855 -83.880928 13.318001
-79.980835 -83.953003 13.385833
-80.870499 -83.564507 13.423333
-80.641197 -83.614296 13.3554
-80.390999 -83.686249 13.31475
-81.061401 -83.364098 13.3832
-80.940338 -83.364334 13.256001
-81.784752 -83.013245 13.42375
-81.6474 -83.100601 13.4188
-81.338493 -83.116554 13.353223
-81.166328 -83.22583 13.347835
-82.099121 -82.812874 13.418375
-81.872498 -82.88958 13.380084
-81.641998 -82.895996 13.2775
-82.511505 -82.554504 13.4065
-82.361664 -82.640999 13.386001
-82.152672 -82.703667 13.347333
-81.952003 -82.695 13.282
-82.591751 -82.350296 13.3585
-82.398499 -82.416252 13.254999
-83.323753 -82.043503 13.408251
-83.134285 -82.143288 13.391
-82.852997 -82.196381 13.366249
-83.618217 -81.852997 13.391666
-83.407608 -81.9478 13.332201
-83.139 -81.971001 13.257999
-83.919456 -81.686249 13.401751
-84.555496 -81.265747 13.29925
-84.418129 -81.348381 13.351562
-84.110878 -81.393997 13.356875
-83.947998 -81.442505 13.41275
-85.278 -81.013 13.337
-85.170601 -81.0755 13.3664
-84.850693 -81.064812 13.343812
-84.646622 -81.200996 13.422874
-85.560501 -80.868248 13.3975
-85.388359 -80.929642 13.33907
-85.242996 -80.978996 13.251
-86.055336 -80.507004 13.352
-85.998665 -80.563667 13.350001
-86.109299 -80.289406 13.3883
-85.979996 -80.320755 13.4095
-86.518005 -80.036255 13.3835
-86.361801 -80.132256 13.35375
-86.22625 -80.216003 13.41975
-70.311752 -90.038498 13.555
-70.096397 -90.169403 13.5823
-70.755997 -89.764496 13.5575
-70.615234 -89.843468 13.601
-70.466835 -89.964836 13.572166
-70.874191 -89.679405 13.615801
-70.734001 -89.737 13.673
-71.630249 -89.285995 13.622
-71.461998 -89.306122 13.624374
-72.129829 -89.051666 13.721334
-71.90313 -89.082626 13.622749
-71.61467 -89.210999 13.591001
-72.269997 -88.972 13.729
-72.124908 -88.8937 13.5817
-71.975502 -88.987999 13.565001
-73.026001 -88.505997 13.727
-72.963997 -88.547997 13.736
-72.731003 -88.5215 13.58625
-73.296005 -88.314499 13.689
-73.122818 -88.351624 13.644439
-72.838753 -88.441658 13.620502
-73.762009 -88.041672 13.734668
-73.594734 -88.076668 13.6508
-73.380287 -88.157784 13.601571
-73.208 -88.208 13.553
-73.832878 -87.931625 13.656874
-73.695251 -87.950005 13.572001
-74.612 -87.509003 13.6845
-74.113998 -87.661003 13.511
-74.921997 -87.312996 13.651
-74.68734 -87.414497 13.648499
-74.474503 -87.412994 13.554
-75.319664 -87.059669 13.655334
-75.1381 -87.14753 13.628
-74.850334 -87.166664 13.508334
-75.563004 -86.7565 13.5965
-75.389664 -86.84391 13.627311
-75.185997 -86.947998 13.527
-76.313004 -86.509003 13.613
-76.114395 -86.561401 13.612799
-75.897499 -86.657799 13.5961
-75.627304 -86.714401 13.6386
-76.541 -86.291 13.6415
-76.389862 -86.367638 13.5895
-76.191002 -86.498001 13.549
-76.78125 -86.109497 13.636
-76.6698 -86.206314 13.6287
-77.371712 -85.797569 13.639287
-77.099113 -85.820335 13.639111
-76.851509 -85.923126 13.629625
-77.786171 -85.554993 13.684334
-77.604858 -85.653854 13.625571
-77.446999 -85.729004 13.586
-78.078247 -85.363251 13.64275
-77.936501 -85.421501 13.587167
-78.320831 -85.011833 13.649666
-78.208412 -85.100914 13.633418
-79.055496 -84.7845 13.714
-78.892052 -84.843246 13.623652
-78.605003 -84.896248 13.642417
-78.438057 -84.939613 13.621445
-79.347 -84.55941 13.595333
-79.141556 -84.687119 13.621222
-79.596588 -84.393372 13.609751
-79.436249 -84.477249 13.565
-80.286003 -84.013 13.692
-80.178253 -84.01725 13.619
-79.822418 -84.068245 13.640083
-79.678375 -84.143875 13.6025
-80.574997 -83.804794 13.634001
-80.373085 -83.929329 13.606251
-80.249001 -83.973 13.52
-79.958328 -83.966835 13.659167
-81.057671 -83.528999 13.639333
-80.901108 -83.610229 13.622444
-80.736 -83.696747 13.5935
-81.094101 -83.394905 13.616598
-81.784332 -83.060341 13.577334
-81.331642 -83.110428 13.626857
-81.164902 -83.212997 13.623401
-82.114998 -82.878166 13.582001
-81.941498 -82.969498 13.566
-82.510498 -82.553749 13.591499
-82.390503 -82.67025 13.554
-82.216003 -82.730003 13.514
-82.594177 -82.338081 13.639136
-83.362747 -82.078087 13.5965
-83.154602 -82.188705 13.6045
-82.838921 -82.196251 13.597084
-83.827545 -81.78479 13.619041
-83.635361 -81.906212 13.629501
-83.460999 -81.997002 13.616
-83.976334 -81.645447 13.655612
-84.419502 -81.335503 13.6455
-84.083885 -81.386635 13.659001
-83.944336 -81.439339 13.640667
-85.352379 -81.032501 13.616375
-85.184372 -81.101128 13.582875
-84.879753 -81.035873 13.59925
-84.644608 -81.197144 13.607286
-85.561005 -80.894997 13.640334
-85.462006 -80.965248 13.61525
-86.03183 -80.531334 13.58675
-85.994003 -80.560997 13.6
-86.117203 -80.274796 13.623401
-85.97599 -80.317329 13.637333
-86.509003 -80.028999 13.652667
-86.373718 -80.112076 13.631999
-86.219666 -80.210335 13.647334
-70.087006 -90.339661 13.861
-70.584663 -90.031334 13.810333
-70.385811 -90.152374 13.815501
-70.836372 -89.869873 13.83575
-70.695839 -89.953331 13.865001
-71.043503 -89.740501 13.855
-71.609787 -89.385857 13.844549
-72.193497 -89.033501 13.81625
-71.968002 -89.163498 13.7765
-72.268997 -88.971001 13.811
-73.053497 -88.539253 13.915501
-72.957748 -88.540497 13.917749
-72.726501 -88.516495 13.808001
-73.408669 -88.305504 13.896667
-73.209251 -88.43425 13.89675
-72.7715 -88.445 13.9105
-73.847748 -88.042007 13.914499
-73.639671 -88.169746 13.922252
-73.914001 -87.932999 13.861
-74.708 -87.502998 13.817
-75.056 -87.282997 13.937
-74.774246 -87.453995 13.8875
-75.333832 -87.074745 13.8845
-75.174698 -87.203697 13.862799
-75.381119 -86.826378 13.901251
-76.322998 -86.521004 13.943
-76.152992 -86.623665 13.931
-75.887665 -86.728828 13.943001
-75.627144 -86.69529 13.898
-76.562004 -86.330833 13.906833
-76.402 -86.440002 13.9405
-77.400497 -85.796997 13.916167
-77.099007 -85.797195 13.912801
-77.792877 -85.562744 13.88325
-77.598122 -85.685623 13.905001
-78.078346 -85.386292 13.883899
-77.9412 -85.473801 13.8592
-78.315002 -85.007004 13.888
-78.215073 -85.113998 13.883
-79.043999 -84.785629 13.86375
-78.8825 -84.893173 13.911418
-78.599625 -84.891502 13.910375
-78.427666 -84.936501 13.843667
-79.380501 -84.580498 13.835375
-79.188461 -84.69574 13.857201
-80.284004 -84.010002 13.855
-80.172333 -84.010994 13.843667
-79.815628 -84.061996 13.909375
-79.672752 -84.139091 13.853917
-80.615005 -83.795135 13.864133
-80.419167 -83.920166 13.856112
-79.948502 -83.957253 13.883125
-81.046501 -83.518501 13.9055
-80.859856 -83.639748 13.875501
-80.705002 -83.749001 13.834
-81.098 -83.377602 13.878
-81.765175 -83.080162 13.866166
-81.564003 -83.112999 13.862167
-81.325806 -83.105438 13.857875
-81.135803 -83.208603 13.864301
-82.117752 -82.863251 13.908751
-81.967003 -82.824997 13.951
-82.518669 -82.545334 13.857834
-82.588745 -82.349571 13.878375
-83.358879 -82.071373 13.838976
-83.136147 -82.182068 13.874214
-82.853745 -82.152748 13.830999
-82.744995 -82.221992 13.841666
-83.844498 -81.753502 13.9475
-83.652657 -81.884903 13.856749
-83.460999 -81.998001 13.946
-83.932503 -81.686501 13.872612
-84.41143 -81.329651 13.872643
-84.094421 -81.364746 13.899833
-83.955002 -81.451004 13.910999
-85.348 -81.029335 13.844501
-85.176506 -81.09433 13.852168
-84.86171 -81.043861 13.861143
-84.631943 -81.194565 13.8425
-85.454002 -80.958336 13.843334
-86.051666 -80.504662 13.852
-85.991997 -80.558998 13.765
-86.083878 -80.284248 13.86375
-85.969002 -80.311996 13.90575
-86.502998 -80.023499 13.860001
-86.350296 -80.118919 13.853125
-86.184837 -80.216835 13.937167
-86.613625 -79.954002 13.891126
-70.251999 -90.295242 14.1835
-70.136246 -90.33725 14.15
-70.603416 -90.073586 14.136834
-70.407867 -90.197502 14.146125
-70.896156 -89.891052 14.126751
-70.727997 -89.992996 14.033
-71.036499 -89.732498 14.0965
-71.757172 -89.346336 14.140834
-71.617355 -89.417068 14.118356
-72.162788 -89.093643 14.108607
-71.962494 -89.215248 14.084749
-73.053001 -88.540337 14.139333
-72.952995 -88.535667 14.140332
-72.721001 -88.511002 14.11125
-73.397369 -88.322746 14.11275
-73.186325 -88.457993 14.120999
-72.766998 -88.439331 14.152333
-73.843246 -88.046829 14.089916
-73.656433 -88.161522 14.11181
-73.930496 -87.953003 14.110001
-75.05275 -87.280746 14.1195
-74.769997 -87.450005 14.151668
-75.32106 -87.087997 14.122687
-75.160995 -87.214096 14.137201
-75.401245 -86.813499 14.142938
-76.137749 -86.596558 14.154438
-75.895004 -86.71917 14.148
-75.589211 -86.699501 14.104584
-76.377075 -86.441353 14.089715
-77.392502 -85.789055 14.123943
-77.084869 -85.776123 14.1105
-77.786667 -85.556999 14.148833
-77.594376 -85.682129 14.088813
-77.134995 -85.741249 14.1825
-78.085335 -85.376091 14.138249
-77.921295 -85.477303 14.134399
-78.309998 -85.001999 14.113
-78.21035 -85.143784 14.118857
-79.030449 -84.782387 14.138667
-78.863853 -84.890068 14.11307
-78.605499 -84.886902 14.118601
-78.412666 -84.931999 14.154332
-79.515503 -84.503998 14.125999
-79.352707 -84.587273 14.145354
-79.126251 -84.717247 14.127375
-79.615433 -84.399933 14.115749
-80.277748 -84.00425 14.08025
-80.164246 -84.003998 14.11025
-79.802605 -84.0616 14.118601
-79.667747 -84.135124 14.102875
-80.600334 -83.794556 14.156555
-80.42157 -83.906784 14.117643
-79.941826 -83.951668 14.148666
-81.044495 -83.516998 14.09
-80.855255 -83.634628 14.108749
-81.100502 -83.391754 14.09
-81.758507 -83.074165 14.139333
-81.579834 -83.090004 14.109833
-81.323853 -83.1045 14.119573
-81.163414 -83.1875 14.157001
-82.104004 -82.850502 14.091
-82.513 -82.55825 14.087999
-82.586952 -82.332321 14.148364
-83.354767 -82.06517 14.096567
-83.14283 -82.174248 14.123
-82.837006 -82.137169 14.096334
-82.734756 -82.212997 14.10875
-83.824272 -81.760277 14.151944
-83.636925 -81.880051 14.120715
-83.454498 -81.992996 14.153999
-83.952644 -81.6465 14.163857
-84.409309 -81.320747 14.16175
-84.130661 -81.339333 14.132467
-83.9748 -81.428802 14.162
-85.275276 -81.058281 14.086722
-85.078995 -81.062256 14.11625
-84.828072 -81.061501 14.102358
-84.603317 -81.203255 14.097
-85.400375 -80.968628 14.11275
-86.050003 -80.503998 14.102
-86.0495 -80.391998 14.094001
-85.973 -80.316002 14.135666
-86.387978 -80.083527 14.123195
-86.171501 -80.215103 14.1644
-70.158615 -90.318878 14.365749
-70.578377 -90.081055 14.364375
-70.389626 -90.199059 14.358811
-70.846664 -89.913109 14.364979
-71.028496 -89.724335 14.3665
-71.804169 -89.306999 14.400001
-71.605621 -89.408173 14.374778
-72.121002 -89.106621 14.4195
-71.960999 -89.215004 14.349
-72.286003 -88.996002 14.466
-73.046005 -88.531754 14.40325
-72.946747 -88.528252 14.4035
-72.718666 -88.508995 14.335
-73.358192 -88.335365 14.386072
-73.15406 -88.46772 14.35539
-72.761002 -88.433998 14.3535
-72.734497 -88.466003 14.4855
-73.84417 -88.032326 14.351611
-73.620674 -88.171997 14.378649
-75.041 -87.266998 14.259
-75.307831 -87.088997 14.373166
-75.158417 -87.203087 14.388667
-75.408875 -86.800194 14.394813
-76.14019 -86.586609 14.403361
-75.911194 -86.702499 14.413099
-75.595833 -86.678917 14.387082
-76.359665 -86.451103 14.345668
-77.344826 -85.796501 14.362
-77.056999 -85.776001 14.4025
-77.813248 -85.528244 14.4115
-77.626724 -85.6474 14.366833
-77.462997 -85.749496 14.4075
-77.106995 -85.710999 14.402
-78.102997 -85.352997 14.3955
-77.928101 -85.462097 14.356298
-78.215622 -85.117622 14.368875
-79.049889 -84.774445 14.417333
-78.86306 -84.873894 14.368779
