# .PCD v0.7 - Point Cloud Data file format
VERSION 0.7
FIELDS x y z
SIZE 4 4 4
TYPE F F F
COUNT 1 1 1
WIDTH 162
HEIGHT 1
VIEWPOINT -18.2321 96.2205 -1.35163 -0.354149 -0.00701479 0.0211809 0.934923
POINTS 162
DATA ascii
19.673334 100.49467 36.132999
19.854876 100.32696 36.104084
19.566998 100.53999 36.133598
19.761 100.55067 36.144333
19.969999 100.17049 36.362995
20.05125 100.11825 36.378746
19.865776 100.36001 36.353111
19.598467 100.53834 36.385033
19.759251 100.5535 36.406502
19.9695 100.17933 36.63483
20.0975 100.1396 36.629265
19.865749 100.36868 36.590668
19.590792 100.55283 36.643627
19.759501 100.5645 36.591999
19.968 100.1805 36.9025
20.07815 100.1471 36.868847
19.86622 100.38188 36.844002
19.59025 100.56125 36.911999
19.759333 100.57333 36.863331
19.96875 100.193 37.0895
20.122501 100.1405 37.148998
19.875429 100.38679 37.128784
19.590582 100.57199 37.135166
19.757999 100.5765 37.10025
19.968332 100.19933 37.353333
20.14002 100.12924 37.368908
19.8575 100.40363 37.351246
19.59075 100.584 37.405624
19.757999 100.58801 37.368332
19.96875 100.21324 37.581253
20.139833 100.15533 37.642723
19.867188 100.41557 37.642876
19.591188 100.59187 37.591312
19.75725 100.5925 37.592251
19.945499 100.19537 37.887001
20.137947 100.1394 37.856152
19.659 100.48499 37.983669
19.866573 100.4071 37.871788
19.456001 100.67375 37.965752
19.588417 100.58926 37.857498
19.754333 100.58799 37.855
19.966 100.224 38.132999
20.131144 100.13036 38.09243
19.873098 100.43221 38.174702
19.587376 100.59288 38.109623
19.753 100.59351 38.141998
19.9695 100.2455 38.304001
20.137648 100.16928 38.3405
19.901651 100.40501 38.395252
19.593084 100.633 38.361912
19.754333 100.607 38.350002
19.912189 100.39275 38.645126
19.593126 100.64194 38.586437
19.778126 100.55537 38.636497
19.928928 100.369 38.866283
19.772999 100.575 38.860699
20.124477 100.20564 39.129333
19.916313 100.41199 39.144501
19.782801 100.5628 39.1381
20.137333 100.20533 39.278667
19.928999 100.38985 39.365288
20.103724 100.25539 39.42728
19.6033 100.673 39.382
19.772699 100.5937 39.359299
20.208 100.18533 39.622559
19.916065 100.43369 39.644936
20.062876 100.26262 39.635876
19.610374 100.68079 39.627251
19.791126 100.56937 39.630249
20.211 100.18037 39.865627
19.925358 100.41722 39.862072
20.094601 100.2751 39.8484
19.656126 100.66644 39.863312
19.805 100.559 39.888748
19.481001 100.788 39.918999
20.169798 100.1813 40.164001
19.942501 100.35799 40.132877
20.108667 100.2664 40.077057
19.452 100.654 40.195
19.637814 100.65426 40.125942
19.857901 100.5109 40.139599
19.426332 100.89716 40.188335
19.886929 100.16807 40.338428
20.116777 100.1545 40.358444
19.748001 100.479 40.443497
19.833 100.35912 40.312874
19.402901 100.63539 40.372299
19.592361 100.59272 40.355694
19.761501 100.543 40.386002
19.396666 100.88 40.395329
19.875715 100.15093 40.603001
20.089167 100.13406 40.5965
19.419001 100.496 40.544998
19.729334 100.45333 40.540001
19.769001 100.412 40.634499
19.39925 100.58625 40.581997
19.610125 100.5855 40.658123
19.309 100.872 40.533001
19.899801 100.2126 40.883801
20.133144 100.1973 40.852814
19.84 100.42267 40.875668
19.439667 100.61768 40.840668
19.637907 100.61776 40.876354
19.789749 100.52575 40.907501
19.417999 100.88232 40.843998
19.900625 100.19187 41.086376
19.820999 100.42725 41.149376
19.435749 100.608 41.10725
19.571938 100.59763 41.135689
19.75625 100.54925 41.092751
19.411501 100.86399 41.154499
19.902357 100.13599 41.357788
20.083502 100.12951 41.376999
19.804998 100.4106 41.3722
19.456223 100.5555 41.353779
19.651062 100.54631 41.370689
19.4 100.81833 41.398998
19.922501 99.973495 41.689499
19.905428 100.08442 41.610432
20.072668 100.05533 41.587002
19.470999 100.43417 41.651669
19.658958 100.41901 41.652771
19.800375 100.34662 41.635124
19.403126 100.60844 41.64975
19.597 100.5125 41.531502
19.210501 100.79437 41.643002
19.357332 100.853 41.540333
19.9125 99.865936 41.867188
20.032 99.980003 41.756001
19.819799 100.1462 41.9002
19.44725 100.32575 41.890999
19.631332 100.32828 41.881115
19.801001 100.271 41.807999
19.233334 100.73233 41.845669
19.359787 100.65778 41.874714
19.149 100.798 41.876331
19.901501 99.703003 42.034
19.8384 99.897804 42.164001
19.483334 100.14333 42.128338
19.670576 100.14297 42.137222
19.7945 100.06675 42.093498
19.421999 100.33434 42.140835
19.552666 100.25368 42.032333
19.3855 100.58762 42.096626
19.3265 100.847 42.102997
19.818624 99.671623 42.439003
19.456333 99.901672 42.426167
19.647501 99.89502 42.405476
19.821501 99.8545 42.31575
19.441126 100.12738 42.339249
19.570499 100.0455 42.287498
19.771999 99.186005 42.746002
19.487999 99.459999 42.702999
19.6236 99.423904 42.723595
19.813499 99.386627 42.614502
19.453501 99.666245 42.630249
19.629688 99.627747 42.606812
19.779001 99.598999 42.548668
19.436333 99.926666 42.618999
19.6465 99.79525 42.5215
19.464001 99.346001 42.777
19.632751 99.296005 42.779999
