# .PCD v0.7 - Point Cloud Data file format
VERSION 0.7
FIELDS x y z
SIZE 4 4 4
TYPE F F F
COUNT 1 1 1
WIDTH 64
HEIGHT 1
VIEWPOINT -18.2321 96.2205 -1.35163 -0.354149 -0.00701479 0.0211809 0.934923
POINTS 64
DATA ascii
-7.7944999 -48.619171 9.1546669
-7.6181669 -48.342331 9.1694164
-7.4454722 -48.095886 9.1509447
-7.197 -47.800999 9.0790005
-7.1269336 -47.635406 9.1236563
-7.8129668 -48.590332 9.3632002
-7.6689172 -48.377663 9.4393749
-7.5404997 -48.199501 9.3473749
-7.4588332 -48.070667 9.415
-7.3215332 -47.886768 9.4000502
-7.1641665 -47.656193 9.3917618
-7.0386662 -47.473419 9.3459997
-7.8336 -48.606003 9.6413012
-7.669673 -48.371582 9.6335649
-7.5542221 -48.202 9.6794996
-7.4469781 -48.045223 9.6540556
-7.3346906 -47.883633 9.6512384
-7.1575637 -47.628761 9.6423092
-7.0411668 -47.459225 9.6517229
-7.95575 -48.785641 9.8805552
-7.8270731 -48.586689 9.8631983
-7.6679811 -48.361664 9.8783064
-7.5540414 -48.192348 9.8779583
-7.4517503 -48.074352 9.9360628
-7.346067 -47.896038 9.8743
-7.2468004 -47.765202 9.9538002
-7.1489444 -47.614204 9.8812876
-7.0419168 -47.459335 9.897501
-8.0332499 -48.801003 10.19075
-7.948 -48.761002 10.058333
-7.8749804 -48.627754 10.119051
-7.794239 -48.412464 10.210495
-7.6761451 -48.332367 10.116328
-7.5807438 -48.153393 10.146768
-7.469389 -48.060333 10.068583
-7.3953524 -47.885002 10.131102
-7.2970834 -47.684555 10.176194
-7.1889291 -47.599743 10.108108
-7.0824881 -47.389477 10.156642
-7.0555 -47.246002 10.2195
-8.0632496 -48.684231 10.365719
-7.9290004 -48.600033 10.406138
-7.8421998 -48.379265 10.339233
-7.7001247 -48.297806 10.406584
-7.6383004 -48.11475 10.361533
-7.4615002 -48.0065 10.475
-7.5440836 -47.895123 10.291666
-7.3696752 -47.667553 10.309487
-7.2103128 -47.617374 10.435625
-7.1067867 -47.380825 10.35774
-6.9671249 -47.280499 10.454374
-7.9087291 -48.661156 10.604313
-7.757 -48.449543 10.59925
-7.6682329 -48.331585 10.649767
-7.5495663 -48.163223 10.6079
-7.4256673 -48.090706 10.666042
-7.3483887 -47.858917 10.583333
-7.1736002 -47.622662 10.589133
-7.7128749 -48.573124 10.83825
-7.622159 -48.358593 10.889848
-7.389534 -48.193043 10.85872
-7.2186427 -48.1315 10.898804
-7.1135001 -47.875999 10.831
-7.0439997 -47.5909 10.8623
