# .PCD v0.7 - Point Cloud Data file format
VERSION 0.7
FIELDS x y z
SIZE 4 4 4
TYPE F F F
COUNT 1 1 1
WIDTH 715
HEIGHT 1
VIEWPOINT -18.2321 96.2205 -1.35163 -0.354149 -0.00701479 0.0211809 0.934923
POINTS 715
DATA ascii
20.408688 70.470688 -1.0883751
20.601624 70.476685 -1.0797499
19.945499 70.477493 -0.76950002
20.15106 70.474083 -0.8729524
20.392166 70.48217 -0.87091666
20.621632 70.468163 -0.87204754
20.709 70.527 -0.91299999
19.921 70.477249 -0.65649998
20.123938 70.483948 -0.6356979
20.417116 70.494583 -0.62803328
20.592333 70.497833 -0.6212222
19.115894 70.599396 -0.63454539
19.315918 70.610168 -0.54508334
19.662251 70.608414 -0.52950001
20.626902 70.502502 -0.63699996
20.163151 70.493065 -0.42161664
20.356998 70.497498 -0.48199999
18.898752 70.604836 -0.38198808
19.120298 70.611343 -0.37385002
19.336365 70.619125 -0.37120831
19.640392 70.597244 -0.37599999
20.108444 70.50267 -0.34044445
20.390299 70.506165 -0.35503572
20.602535 70.511818 -0.38604999
19.743 70.499001 -0.152
20.111 70.494003 -0.243
19.390249 70.632553 -0.12979999
19.625511 70.613701 -0.13088542
20.111917 70.511505 -0.094472222
20.345856 70.514687 -0.11985715
20.605083 70.526466 -0.13695002
19.660084 70.601616 0.13426042
19.885752 70.511299 0.12109999
20.104 70.518539 0.12265
20.364855 70.527847 0.13438541
19.62619 70.624687 0.38510713
19.874994 70.521675 0.36206666
20.086102 70.528893 0.37005001
20.361761 70.53672 0.38085717
19.645138 70.628113 0.64459258
19.87505 70.534805 0.62950003
20.099625 70.539185 0.60456252
20.336605 70.54776 0.62586457
19.38175 70.676842 0.86929989
19.647459 70.635994 0.88924998
19.900684 70.545395 0.87348336
20.103971 70.549683 0.85906953
20.359499 70.560501 0.87539291
19.124821 70.680496 1.1267858
19.394293 70.6894 1.1418055
19.637434 70.662804 1.132852
19.90065 70.557022 1.1233833
20.0961 70.563751 1.1331499
20.351908 70.571098 1.1471852
18.898937 70.686478 1.4248959
19.150291 70.690796 1.3619791
19.404068 70.699348 1.3931249
19.660273 70.663834 1.3623637
19.884298 70.566711 1.3669
20.120201 70.574905 1.3827002
20.354334 70.583122 1.39925
18.863348 70.695763 1.6352729
19.139942 70.703247 1.6105583
19.403723 70.714104 1.6450415
19.659952 70.671364 1.5969762
19.908451 70.578346 1.62845
20.109835 70.585899 1.638903
20.356867 70.595215 1.6439859
18.868929 70.704445 1.8667917
19.121893 70.713539 1.8784286
19.404812 70.723564 1.8951875
19.661682 70.684029 1.8598124
19.906126 70.592033 1.891736
20.130583 70.59906 1.8639523
20.332199 70.604279 1.8736875
18.863037 70.714424 2.1199286
19.155071 70.723679 2.1241071
19.39665 70.731949 2.1291001
19.672388 70.679459 2.1292593
19.896036 70.599022 2.1087408
20.143375 70.609848 2.1527188
20.377375 70.615501 2.1189585
18.663126 70.721504 2.3864999
18.850687 70.726532 2.3660936
19.087599 70.732613 2.3589444
19.357084 70.742249 2.3715832
19.66618 70.690285 2.3467143
19.901709 70.610001 2.3484166
20.150002 70.621834 2.3965416
20.382502 70.628746 2.3789499
19.46475 70.751251 2.4675
19.615112 70.754829 2.4350002
18.665085 70.729256 2.6426668
18.860107 70.736961 2.6252859
19.084517 70.743332 2.6171002
19.30575 70.747498 2.5543749
19.702562 70.665001 2.6111252
19.8575 70.624458 2.6466427
20.161072 70.632309 2.6232145
20.385199 70.638855 2.62095
19.147751 70.751251 2.74225
19.40275 70.755684 2.6563163
19.588846 70.761139 2.6435001
18.694 70.743004 2.9074166
18.838034 70.743866 2.8138165
19.68375 70.670746 2.8917499
19.87595 70.633553 2.8802621
20.12578 70.640533 2.8720312
20.4109 70.651001 2.87395
18.880625 70.75312 2.9532499
19.095125 70.756317 2.8907499
19.349438 70.763435 2.8665001
19.59025 70.772194 2.8823123
18.67 70.749252 3.0522499
19.682751 70.667999 3.0970001
19.876501 70.644638 3.114357
20.129465 70.65519 3.12025
20.392866 70.661064 3.1285501
18.710001 70.755249 3.1424999
18.894749 70.761208 3.1342332
19.087 70.766457 3.1254001
19.35437 70.775612 3.1484168
19.58046 70.783287 3.1385
19.682165 70.666504 3.3535001
19.852468 70.655342 3.3651247
20.142797 70.664528 3.3537502
20.388514 70.672829 3.3811388
20.5945 70.681084 3.36675
18.677849 70.765457 3.3789501
18.876699 70.771194 3.3734164
19.10965 70.778198 3.3718834
19.360624 70.78672 3.3963196
19.590834 70.795395 3.4095166
19.68425 70.675003 3.61075
19.851374 70.667252 3.6107082
20.124626 70.676872 3.6274061
20.419998 70.685402 3.6264
20.575542 70.689255 3.6361461
18.680349 70.776047 3.6302001
18.886583 70.782829 3.6393473
19.114399 70.790054 3.6264
19.361166 70.797684 3.6367252
19.571451 70.802399 3.5872998
19.684334 70.676338 3.8671665
19.846157 70.678345 3.85463
20.139666 70.687988 3.8620834
20.385281 70.696396 3.9058127
20.57325 70.698418 3.8540833
18.669357 70.786636 3.8858929
18.904785 70.794029 3.9066665
19.09313 70.799469 3.870131
19.357281 70.809074 3.8600731
19.589001 70.815247 3.8594999
19.6875 70.688499 4.150167
19.857752 70.692368 4.1407671
20.133148 70.697762 4.1112499
20.355083 70.704071 4.12325
18.644999 70.797813 4.1300745
18.847427 70.802864 4.1125002
19.109188 70.812004 4.1112499
19.350679 70.820145 4.1194644
19.602001 70.823807 4.1432505
18.783499 70.689331 4.41225
19.689665 70.696342 4.3993335
19.854948 70.700615 4.3728938
20.091583 70.707458 4.359417
20.378786 70.717102 4.3766665
18.679277 70.803139 4.3431249
18.929501 70.817184 4.3566875
19.132143 70.823021 4.3681903
19.358797 70.829155 4.3570242
19.582251 70.832787 4.3642502
18.667 70.707336 4.6815
18.820124 70.678993 4.6360002
19.68848 70.721947 4.6397715
19.867929 70.711044 4.6317978
20.084167 70.719269 4.6340499
20.370657 70.726532 4.6350942
18.64275 70.810501 4.6100626
18.959389 70.826614 4.6381106
19.134462 70.837463 4.6276789
19.371485 70.846153 4.6369033
19.577801 70.845001 4.6098504
18.60775 70.678375 4.8895626
18.857895 70.687775 4.8732815
19.120649 70.700356 4.9297004
19.408188 70.720749 4.910625
19.660625 70.716087 4.8590002
19.883314 70.721756 4.8980627
20.105967 70.729187 4.8729
20.346964 70.735786 4.8791428
20.563816 70.742813 4.8574834
18.598 70.799004 4.7680001
19.113375 70.830627 4.8310003
19.319016 70.849297 4.8173337
19.516001 70.841003 4.809
18.623167 70.690498 5.1379166
18.890417 70.699921 5.1077399
19.129072 70.706429 5.093143
19.399084 70.717522 5.1421108
19.603899 70.722305 5.1229
19.841167 70.731499 5.1080832
20.1015 70.740479 5.1358051
20.346817 70.745255 5.0915337
20.4585 70.755997 5.1430001
20.575083 70.755173 5.1374168
18.628473 70.663033 5.3837595
18.849432 70.678764 5.3704748
19.119192 70.693459 5.3517504
19.364853 70.690804 5.4005837
19.611322 70.700066 5.3879766
19.855017 70.712227 5.3705583
20.107889 70.710266 5.4173751
20.353901 70.694771 5.4435334
20.6061 70.699867 5.4532332
20.155998 70.752754 5.336
20.349716 70.755768 5.2934999
20.577499 70.764374 5.3442497
18.63625 70.621101 5.6091256
18.864088 70.651237 5.6314168
19.124121 70.661972 5.6328936
19.369474 70.647423 5.609467
19.622887 70.655533 5.6113057
19.884958 70.654503 5.6115003
20.139723 70.629196 5.5771527
20.368999 70.665794 5.6062498
20.651125 70.641998 5.586
19.738335 70.750671 5.7396669
19.919001 70.758415 5.7205834
20.151667 70.76767 5.7019997
20.408667 70.779091 5.7224998
20.58275 70.785751 5.68225
18.6185 70.706833 5.7578335
19.029749 70.724503 5.75525
19.45875 70.741501 5.7547498
19.608124 70.74675 5.7614999
18.6408 70.798935 5.8823333
18.863451 70.809494 5.8898935
19.121857 70.830055 5.9032025
19.362095 70.814865 5.875104
19.629147 70.825356 5.8773541
19.869633 70.85894 5.9030499
20.115868 70.842155 5.8650918
20.383823 70.870155 5.8951201
20.571501 70.793755 5.7866669
20.583 71.021004 5.9060001
18.876926 70.887886 6.1255927
19.136793 70.906952 6.1262035
19.377432 70.907608 6.1328664
19.644575 70.904678 6.1091485
19.884001 70.89959 6.1211667
20.13126 70.889374 6.1551113
20.375093 70.905365 6.1464372
19.3715 71.028503 6.2001247
19.584999 71.007996 6.165
19.048 70.793999 6.2504997
19.362665 70.909172 6.2781663
19.655251 70.895996 6.3513746
19.843607 70.9021 6.3777499
20.100937 70.935814 6.3938751
20.368771 70.940331 6.3764477
19.156876 71.035789 6.3961663
19.386436 71.043945 6.3881874
19.582874 71.054565 6.402813
19.671501 70.931122 6.6049995
19.852604 70.932381 6.6369271
20.103127 70.945374 6.602375
20.362461 70.958168 6.6273541
19.158833 71.043999 6.5997081
19.365107 71.053108 6.656857
19.584499 71.060944 6.611125
19.684862 70.939507 6.861403
19.889 70.944313 6.8863125
20.105124 70.954628 6.8625832
19.144314 71.054146 6.8743229
19.386814 71.064743 6.9028749
19.587873 71.069374 6.8652081
19.690182 70.951057 7.1428342
19.891376 70.953873 7.0947504
20.097967 70.96315 7.1262832
19.147472 71.068459 7.1463428
19.388874 71.073814 7.1115627
19.586555 71.077751 7.1327915
19.691187 70.961563 7.3888125
19.894123 70.966087 7.3555832
20.154833 70.977859 7.368988
20.367537 70.983315 7.3450952
19.148085 71.076164 7.3934579
19.388529 71.085258 7.3557916
19.590876 71.090126 7.3922501
19.68605 70.974297 7.6276503
19.897125 70.978935 7.6167498
20.169468 70.98925 7.6300936
20.381229 70.993332 7.5898333
18.688 71.085953 7.5938501
18.892832 71.075722 7.6294503
19.14924 71.086662 7.6331353
19.398479 71.097328 7.6468024
19.589708 71.098923 7.5986247
20.386772 71.003334 7.7009583
19.703333 70.984718 7.8782334
19.899584 70.989182 7.8431945
20.127375 70.994751 7.8162503
18.874666 71.087105 7.8714523
19.159546 71.096573 7.9009628
19.381866 71.105797 7.8799667
19.595793 71.11171 7.8632083
20.138611 71.005775 7.9269719
20.342585 71.011086 7.8965836
19.696709 70.994583 8.1066046
19.883001 70.997665 8.0525007
18.894533 71.09787 8.1150665
19.134874 71.106178 8.1117907
19.39875 71.117874 8.1038122
19.607252 71.107712 8.157321
19.869822 71.005058 8.1563435
20.140354 71.01413 8.1425314
20.400034 71.023155 8.1254501
19.686501 70.998505 8.2740002
18.848063 71.107468 8.3644686
19.140583 71.11673 8.3517313
19.399904 71.129539 8.3592234
19.651031 71.069908 8.3872185
19.905874 71.01593 8.4015007
20.158833 71.024986 8.3722982
20.409536 71.056953 8.3672619
18.864666 71.117981 8.6280718
19.14101 71.131378 8.6444082
19.405708 71.142639 8.6428757
19.653694 71.071381 8.6102228
19.907438 71.023438 8.6112499
20.15028 71.034065 8.6277809
20.3785 71.044266 8.6303835
18.862667 71.129456 8.8669376
19.138639 71.143471 8.8975697
19.40625 71.152504 8.8900623
19.652796 71.089386 8.8654089
19.909513 71.033142 8.8561258
20.15332 71.04554 8.8825359
20.392601 71.055252 8.8668499
18.873426 71.142311 9.128396
19.136875 71.149536 9.1062918
19.377415 71.160233 9.1296997
19.629187 71.108734 9.1216869
19.873322 71.046463 9.1503859
20.154875 71.054085 9.1143751
18.846846 71.15168 9.3754292
19.124727 71.161667 9.3614368
19.408916 71.172722 9.3608198
19.61878 71.122185 9.3529367
19.857862 71.056976 9.3919172
20.135757 71.065163 9.3513241
18.858488 71.161819 9.6206188
19.110941 71.174095 9.6585836
19.373074 71.181503 9.6350317
19.620407 71.127319 9.627511
19.85607 71.063652 9.6069441
20.147945 71.076897 9.6278019
18.849417 71.173515 9.8670311
19.089939 71.184875 9.8962498
19.390678 71.195778 9.8938541
19.60191 71.165092 9.8762274
19.854982 71.073967 9.8544445
20.121059 71.084969 9.8839521
18.868071 71.183205 10.111417
19.119043 71.193665 10.152875
19.349001 71.199966 10.11447
19.621937 71.162201 10.126712
19.870522 71.085464 10.152073
20.119972 71.095779 10.134694
18.88061 71.19397 10.383584
19.085382 71.201477 10.35425
19.364798 71.214867 10.356833
19.634544 71.155327 10.367682
19.871166 71.09906 10.398458
20.119343 71.103531 10.330817
18.865433 71.20575 10.620931
19.098015 71.217499 10.645778
19.359297 71.22995 10.646963
19.629816 71.170326 10.606777
19.871416 71.109756 10.629369
20.141417 71.115753 10.594417
18.679714 71.210388 10.887215
18.895216 71.220169 10.870883
19.099625 71.232567 10.900063
19.342899 71.240868 10.881666
19.615812 71.187622 10.829313
19.839636 71.116867 10.859083
20.092402 71.126945 10.857681
19.436666 71.250999 10.953001
19.573936 71.253372 10.913876
18.647667 71.224274 11.095668
18.842875 71.23156 11.130406
19.099916 71.244186 11.103437
19.265999 71.249008 11.05775
19.662333 71.143837 11.159916
19.850178 71.130493 11.129198
20.092308 71.140755 11.140403
19.167 71.250664 11.237667
19.349152 71.255455 11.134849
19.577139 71.267387 11.144708
18.643528 71.236366 11.403862
18.82707 71.239906 11.365181
19.048 71.247002 11.26225
19.663 71.14888 11.381001
19.848692 71.145607 11.382059
20.0965 71.153374 11.395499
18.94375 71.250748 11.455
19.10223 71.256317 11.394709
19.361332 71.267105 11.369833
19.579063 71.277809 11.392376
18.419666 71.238136 11.661783
18.629831 71.243057 11.628264
18.791168 71.245087 11.548333
19.665375 71.15506 11.645561
19.875124 71.155617 11.621722
20.089167 71.161118 11.633101
18.668333 71.250671 11.743
18.902552 71.257896 11.67165
19.097166 71.266418 11.622583
19.347425 71.278618 11.640472
19.580439 71.285248 11.605062
18.407 71.246124 11.8495
19.664499 71.155899 11.851549
19.84144 71.162109 11.861596
20.109385 71.172897 11.870534
18.408875 71.254379 11.956125
18.658703 71.259628 11.887299
18.894875 71.271065 11.892438
19.139473 71.280342 11.892876
19.364801 71.288895 11.8917
19.562376 71.289673 11.899541
19.619097 71.180801 12.137988
19.827715 71.173866 12.116857
20.113501 71.184853 12.11955
18.39855 71.259003 12.1416
18.656322 71.269318 12.13949
18.886831 71.278427 12.131267
19.144989 71.290207 12.131166
19.370325 71.301292 12.146092
19.537367 71.292198 12.115167
19.373478 71.177536 12.414392
19.5909 71.189896 12.3592
19.851282 71.18544 12.371572
20.113285 71.197433 12.372714
18.914833 71.292137 12.387195
19.130375 71.299065 12.399552
19.35479 71.298378 12.347709
18.980999 71.177162 12.655002
19.130732 71.17421 12.629191
19.402777 71.179085 12.642445
19.615562 71.185379 12.599751
19.872902 71.197304 12.630221
20.096394 71.207497 12.632226
20.347275 71.217323 12.629356
18.908249 71.288811 12.625111
19.032 71.302002 12.505
18.935284 71.182022 12.895816
19.140501 71.177376 12.898708
19.403 71.18856 12.893874
19.620026 71.198906 12.887449
19.846498 71.206581 12.871582
20.10944 71.218437 12.890812
20.347073 71.228462 12.86072
18.883146 71.175957 13.137364
19.151814 71.187965 13.136469
19.402037 71.199516 13.137823
19.640469 71.208893 13.1265
19.891832 71.220482 13.154236
20.111313 71.22731 13.105437
20.359537 71.237198 13.111929
18.864458 71.186279 13.388222
19.121441 71.19722 13.377874
19.360134 71.206299 13.350968
19.660608 71.21904 13.383037
19.897354 71.230019 13.386792
20.132999 71.239685 13.353286
20.306396 71.244461 13.339146
20.391611 71.252777 13.426277
18.634779 71.099358 13.638175
18.882345 71.111504 13.633541
19.130108 71.122353 13.636583
19.373756 71.139816 13.621524
19.635895 71.141129 13.636302
19.876564 71.167648 13.624314
20.131329 71.171066 13.637598
20.370415 71.182953 13.633739
18.670418 71.220383 13.835417
18.93325 71.245499 13.837749
19.126499 71.119751 13.769501
19.296 71.103996 13.751
19.594 71.217003 13.799
20.459 71.237999 13.797
18.4105 71.344498 13.9615
18.645668 71.319923 13.931999
18.852367 71.335533 13.930799
19.134417 71.324944 13.911057
19.373281 71.330292 13.905352
19.632263 71.338615 13.902
19.888376 71.344627 13.901189
20.11281 71.363213 13.906738
20.346361 71.37352 13.909013
18.395777 71.403069 14.083611
18.604126 71.417183 14.111312
18.848858 71.424149 14.117632
19.099617 71.43663 14.13
19.345356 71.444077 14.122537
19.626751 71.45472 14.126875
19.9158 71.4664 14.130099
20.132792 71.478165 14.14153
20.339874 71.48587 14.106
20.443666 71.558662 14.129666
18.401596 71.418167 14.352237
18.606417 71.429436 14.349499
18.861416 71.443138 14.363292
19.079584 71.451454 14.372034
19.373583 71.458588 14.359531
19.651369 71.470619 14.384786
19.897699 71.481552 14.371417
20.144964 71.491539 14.375751
20.332834 71.494415 14.339665
20.308167 71.501335 14.442167
18.608501 71.441681 14.597313
18.848915 71.45414 14.635635
19.085266 71.464127 14.630834
19.343441 71.473076 14.62369
19.636999 71.485855 14.643858
19.879034 71.491699 14.587267
20.045 71.499001 14.542
19.975 71.502998 14.714334
20.124966 71.505852 14.628143
20.378668 71.531418 14.572501
18.609251 71.454323 14.857041
18.856167 71.468422 14.876845
19.108099 71.480553 14.872999
19.37278 71.489182 14.863343
19.593466 71.493828 14.838867
19.830999 71.497002 14.752501
19.641001 71.506004 14.96
19.883444 71.509514 14.867888
20.138166 71.518394 14.850347
20.324001 71.526184 14.878874
18.626444 71.466034 15.122486
18.873487 71.478661 15.111056
19.117619 71.492889 15.158262
19.336716 71.49662 15.07195
19.183001 71.5 15.18
19.379232 71.503738 15.159467
19.622612 71.511604 15.115582
19.876858 71.522774 15.142358
20.140265 71.531792 15.102654
20.35125 71.540009 15.087
18.427668 71.475525 15.435306
18.66778 71.480896 15.372845
18.875834 71.488991 15.3728
19.063917 71.496666 15.381167
19.141375 71.503754 15.389999
19.346489 71.511223 15.370156
19.577183 71.520218 15.3694
19.85475 71.5345 15.376678
20.138805 71.544411 15.354945
18.411875 71.479996 15.566376
18.673893 71.492638 15.628106
18.854944 71.494286 15.574612
19.021 71.499001 15.522
18.407501 71.667252 15.7105
18.578833 71.626831 15.698001
18.922104 71.503853 15.656918
19.102156 71.512169 15.648126
19.360334 71.525749 15.627937
19.624033 71.533218 15.613251
19.860703 71.546898 15.634917
20.138151 71.557732 15.594611
18.410582 71.681137 15.86125
18.622639 71.610039 15.880371
18.8778 71.512856 15.870967
19.106647 71.525002 15.90125
19.338787 71.534782 15.885786
19.592821 71.545044 15.851277
19.872036 71.559074 15.877464
20.127823 71.568832 15.853969
18.554001 71.772003 15.771
18.650646 71.578522 16.136574
18.878151 71.525932 16.130234
19.139334 71.541924 16.129791
19.36438 71.552528 16.131191
19.58795 71.560486 16.129484
19.846489 71.571053 16.136021
20.087042 71.578163 16.091938
18.587 71.908997 16.125999
18.641689 71.609245 16.369024
18.903584 71.540565 16.368769
19.15349 71.552147 16.36647
19.383438 71.566559 16.404438
19.608566 71.574318 16.370817
19.864063 71.588684 16.386782
20.105085 71.597786 16.356976
18.564001 71.754333 16.449669
18.625759 71.630936 16.651035
18.884283 71.550888 16.626499
19.158274 71.566254 16.613773
19.385555 71.57914 16.65164
19.616709 71.588058 16.630222
19.85494 71.601212 16.598797
20.129957 71.614403 16.611696
18.46475 71.755119 16.599751
18.542999 71.8545 16.734001
18.628511 71.562035 16.852928
18.908335 71.567619 16.874166
19.1035 71.578873 16.873035
19.345751 71.590233 16.894384
19.618607 71.602646 16.863823
19.851038 71.615326 16.849936
20.089451 71.625916 16.877365
18.453251 71.815247 16.817499
18.509001 71.833 16.808001
18.378851 71.553848 17.114552
18.645653 71.565361 17.106611
18.888584 71.577751 17.127234
19.12685 71.591507 17.1264
19.337334 71.603256 17.136492
19.597202 71.618065 17.124918
19.867498 71.629295 17.12212
20.110567 71.638809 17.123398
18.112347 71.553688 17.337931
18.373199 71.564697 17.362936
18.638899 71.577972 17.350286
18.911751 71.590118 17.369299
19.127861 71.601768 17.373314
19.365149 71.616402 17.37225
19.65593 71.632286 17.382107
19.855097 71.641533 17.355944
20.093018 71.653931 17.379051
18.091499 71.562561 17.5975
18.360542 71.575371 17.599459
18.653156 71.593651 17.637592
18.881613 71.601822 17.611126
19.160391 71.617867 17.622536
19.395042 71.633003 17.650751
19.643177 71.645737 17.620703
19.899734 71.658081 17.627151
20.164343 71.672485 17.635918
17.858644 71.562485 17.881428
18.114704 71.573891 17.840488
18.386093 71.588982 17.871565
18.61939 71.601494 17.860909
18.917833 71.616318 17.870419
19.137426 71.627266 17.863064
19.396439 71.642807 17.895
19.67078 71.655685 17.865967
19.875818 71.66777 17.87215
20.139097 71.682518 17.885786
17.898085 71.475838 18.116249
18.127001 71.477493 18.127125
18.38625 71.481003 18.1455
18.648001 71.493668 18.1535
18.85 71.498001 18.158001
17.86125 71.538994 18.089687
18.164997 71.56131 18.090612
18.395887 71.547226 18.109886
18.617041 71.564484 18.0795
18.875612 71.570648 18.089796
19.120358 71.582817 18.075178
19.366526 71.579674 18.098299
19.627188 71.590302 18.112593
19.874201 71.617905 18.085899
20.114807 71.614464 18.135437
20.367981 71.623505 18.12273
19.89773 71.690338 18.368479
20.158484 71.702606 18.357925
20.331751 71.711586 18.351416
19.893452 71.73925 18.624802
20.068501 71.746002 18.542751
20.180126 71.756836 18.632584
20.31875 71.762749 18.592751
19.90575 71.747498 18.800499
19.862989 71.812218 18.887375
20.143812 71.763474 18.863531
20.320665 71.774666 18.844667
19.654118 71.889122 19.120859
19.869822 71.794815 19.117535
20.147762 71.77549 19.118025
20.321999 71.783249 19.0965
19.561501 72.076256 19.154585
19.7915 72.027168 19.150331
19.623356 71.872429 19.344572
19.876188 71.815536 19.362677
20.143875 71.784889 19.359583
20.323626 71.794121 19.370375
19.563375 72.088249 19.389999
19.768707 72.036255 19.408333
19.6143 71.868301 19.6318
19.855776 71.828476 19.621315
20.13855 71.796303 19.629124
20.305834 71.806 19.590334
19.570028 72.096222 19.649611
19.769112 72.059273 19.651556
19.612646 71.899193 19.886595
19.884417 71.838264 19.864098
20.15593 71.807999 19.870035
20.327333 71.817665 19.856165
19.547874 72.092003 19.84775
19.758499 72.026001 19.818001
19.470213 71.848358 20.123789
19.64888 71.797241 20.131186
19.84375 71.81617 20.099611
20.142323 71.819145 20.122679
19.408112 72.083389 20.139915
19.528 72.070999 20.021999
19.473333 71.745338 20.252335
19.458334 71.890999 20.415834
19.634167 71.797745 20.370659
19.92086 71.817902 20.352943
19.404028 72.094757 20.412012
19.622208 71.814346 20.620485
