# .PCD v0.7 - Point Cloud Data file format
VERSION 0.7
FIELDS x y z
SIZE 4 4 4
TYPE F F F
COUNT 1 1 1
WIDTH 294
HEIGHT 1
VIEWPOINT -18.2321 96.2205 -1.35163 -0.354149 -0.00701479 0.0211809 0.934923
POINTS 294
DATA ascii
-25.862833 24.411833 -2.0337501
-27.034 24.725 -2.0599999
-26.297167 24.631168 -2.0446668
-25.82375 24.555187 -2.0344999
-25.613499 24.6905 -2.0325
-27.52 24.903751 -2.01775
-27.372875 24.942688 -2.0425
-27.104626 24.897125 -2.05825
-26.873001 24.908001 -2.0612502
-26.618999 24.899 -2.0539999
-26.326166 24.876276 -2.046
-26.241501 24.943501 -2.046
-25.841999 24.944 -2.0405002
-25.7325 24.77 -2.036
-25.33 24.778 -2.027
-27.37702 25.122208 -2.0288
-27.146873 25.161438 -2.0555
-26.832998 25.097198 -2.0596001
-26.289249 25.130123 -2.050375
-26.239 25.204 -2.053
-25.868002 25.128332 -2.0476665
-25.118 25.125999 -2.0349998
-27.315968 25.365774 -2.0319867
-27.116777 25.387445 -2.0625556
-26.897251 25.352501 -2.0634999
-26.346001 25.378 -2.0579998
-26.086502 25.354313 -2.0560625
-25.909248 25.46175 -2.06075
-25.445 25.384001 -2.0536668
-25.098 25.497999 -2.0480001
-24.792 25.3985 -2.0355
-27.251499 25.547874 -2.0355
-27.198568 25.646112 -2.0425909
-26.942249 25.591751 -2.0725
-26.514999 25.612 -2.0680001
-26.386 25.632 -2.066
-25.890665 25.588999 -2.0636666
-25.396 25.671501 -2.0584998
-25.097666 25.581331 -2.0496666
-24.858334 25.525665 -2.0410001
-24.525999 25.622999 -2.03
-27.126728 25.873348 -2.0372803
-26.911432 25.8689 -2.0776
-26.627998 25.88475 -2.0752499
-26.421799 25.890133 -2.0602665
-26.17222 25.873596 -2.0609167
-25.875168 25.866964 -2.0675001
-25.638666 25.838333 -2.0669167
-25.275 25.785999 -2.0580001
-24.584751 25.892 -2.03775
-24.324249 25.82675 -2.03
-27.048199 26.098751 -2.0342503
-26.867125 26.084461 -2.0675416
-26.623669 26.105915 -2.0325665
-26.349844 26.113773 -2.0270715
-26.105165 26.133749 -2.0497501
-25.877537 26.131607 -2.0594285
-25.650278 26.183611 -2.0725555
-25.306999 26.191 -2.069
-25.136999 26.225 -2.0669999
-24.513 26.082001 -2.0409999
-24.285 26.167 -2.0420001
-27.066166 26.311668 -2.007
-26.919168 26.313374 -2.0221667
-26.262501 26.255333 -2.0239999
-26.138491 26.393982 -2.028507
-25.858376 26.39925 -2.06075
-25.642748 26.412165 -2.0619166
-25.398165 26.331665 -2.0745001
-24.757999 26.490999 -2.0580001
-24.697001 26.461 -2.056
-24.5 26.472 -2.052
-24.188166 26.350166 -2.0435002
-26.0714 26.623068 -2.0163178
-25.918839 26.658638 -2.0493007
-25.603127 26.650749 -2.0708752
-25.360416 26.616665 -2.0760834
-25.097113 26.652834 -2.0675001
-24.874001 26.588001 -2.0611999
-24.598999 26.617666 -2.0563333
-24.421999 26.631332 -2.0531666
-24.190001 26.664335 -2.0513332
-26.004501 26.9235 -2.0020001
-25.871712 26.887711 -2.0559444
-25.634001 26.973 -2.096
-25.405001 26.764 -2.079
-24.442001 26.897999 -2.062
-24.128082 26.908501 -2.0558333
-26.023085 27.21125 -2.0170002
-25.907396 27.09873 -2.0543542
-25.718832 27.184668 -2.0808334
-25.867876 27.360842 -2.0549145
-25.680624 27.439377 -2.1047499
-25.827845 27.606392 -2.0438213
-25.623896 27.654102 -2.0995133
-25.166 27.695 -2.1055002
-25.763098 27.7551 -2.0414999
-25.611771 27.856459 -2.0550716
-25.381151 27.859823 -2.0955749
-25.133934 27.939432 -2.0878668
-24.84 27.8885 -2.09425
-24.609753 27.87175 -2.0965002
-24.455999 27.996 -2.102
-25.531286 28.035286 -2.0252857
-25.37973 28.113703 -2.0464191
-25.110849 28.110718 -2.07355
-24.869417 28.148722 -2.0934446
-24.592501 28.121124 -2.0982499
-24.330833 28.15625 -2.1036947
-25.329985 28.349548 -2.0266833
-25.156668 28.370897 -2.0557058
-24.85482 28.39485 -2.0920279
-24.631332 28.463835 -2.1013334
-24.387001 28.448166 -2.105
-24.185249 28.4505 -2.1057501
-25.334 28.589333 -2.0218751
-25.102419 28.599251 -2.0565417
-24.893501 28.648062 -2.0889375
-24.618002 28.622002 -2.1035001
-24.363501 28.603874 -2.1028752
-24.178167 28.660667 -2.1066668
-25.691 28.896 -2.0145001
-25.4055 28.777 -2.0279999
-25.169111 28.870417 -2.0580001
-24.865667 28.894018 -2.0849998
-24.639999 28.8682 -2.1042001
-24.1495 28.79475 -2.1069999
-25.621418 29.071968 -2.0240042
-25.38365 29.104126 -2.0350502
-25.145601 29.114872 -2.0519798
-24.850876 29.119875 -2.0918751
-24.613832 29.136332 -2.1093333
-24.3307 29.0693 -2.1094003
-24.089333 29.117332 -2.1110001
-23.855001 29.102335 -2.1085
-23.53775 29.1255 -2.098
-25.094698 29.348007 -2.0338326
-24.860937 29.365021 -2.0954168
-24.622749 29.463501 -2.1115
-24.437 29.271 -2.112
-24.1465 29.359001 -2.1155
-23.9 29.374001 -2.1140001
-23.584375 29.40325 -2.1066251
-25.365166 29.618166 -2.0044999
-25.138 29.592999 -2.033
-24.884335 29.648386 -2.091187
-24.652666 29.557665 -2.1137779
-24.354 29.633499 -2.1255
-23.601999 29.511 -2.109
-25.314047 29.871634 -2.0355778
-25.084749 29.868999 -2.06675
-24.893751 29.849001 -2.09425
-24.604832 29.858791 -2.1167083
-24.4021 29.870401 -2.1241999
-24.122084 29.872581 -2.1245
-25.286583 30.051193 -2.0246944
-25.124134 30.094769 -2.0451999
-24.858244 30.157751 -2.088625
-24.644875 30.120375 -2.1083751
-24.411293 30.137707 -2.1184168
-24.102417 30.086876 -2.1269166
-25.356998 30.437 -2.0145001
-24.894955 30.378845 -2.0511367
-24.605001 30.344305 -2.1062777
-24.355082 30.412416 -2.1157501
-24.191999 30.462 -2.1340001
-25.408001 30.6 -2.0157499
-25.004 30.511 -2.0209999
-24.836744 30.613514 -2.0585248
-24.5485 30.629002 -2.1090002
-24.424555 30.625 -2.1110001
-25.399374 30.866543 -2.0257084
-24.827869 30.881672 -2.0414357
-24.675846 30.882645 -2.0993214
-24.347752 30.80525 -2.1152501
-25.517 31.228001 -2.0020001
-25.442167 31.097834 -2.0178335
-24.779625 31.032623 -2.0393748
-24.654753 31.103899 -2.0981617
-24.394112 31.082945 -2.1128333
-25.559 31.325001 -2.0090001
-25.492001 31.285 -2.029
-24.75643 31.308739 -2.0212855
-24.620506 31.334454 -2.0729094
-25.8015 31.6775 -2.0324998
-27.894665 24.852034 -1.9646002
-27.638596 24.875807 -1.9827223
-28.141668 25.046 -1.9613333
-27.889334 25.137085 -1.9639584
-27.643066 25.138067 -1.9768667
-27.456001 25.1105 -1.9935
-27.792 25.382 -1.967
-27.629084 25.3685 -1.9744167
-27.4007 25.34 -1.9927499
-27.862 25.52 -1.967
-27.541 25.625 -1.9785
-27.405945 25.641724 -1.9859306
-27.76 25.767 -1.9755
-27.6425 25.873001 -1.9775
-27.355715 25.880644 -1.9846071
-27.562332 26.119333 -1.9839998
-27.359249 26.0975 -1.97525
-27.191166 26.156586 -1.9950833
-26.616333 26.208084 -1.975
-26.408501 26.188 -1.9955001
-27.650002 26.358 -1.9965
-27.34 26.485001 -1.993
-27.244333 26.353889 -1.9937778
-26.972 26.348 -2
-26.573221 26.371574 -1.9052223
-26.381475 26.38327 -1.9367305
-26.184 26.487 -1.994
-27.6 26.511 -1.998
-27.264999 26.708 -1.999
-27.153 26.599499 -1.9925001
-26.545668 26.520332 -1.8500001
-26.357977 26.642488 -1.8593556
-26.192532 26.647635 -1.9674714
-26.29715 26.822676 -1.7922322
-26.151819 26.876749 -1.9119527
-26.296331 27.126984 -1.7931502
-26.142324 27.123194 -1.9038486
-26.372965 27.401905 -1.8195699
-26.106638 27.376358 -1.9069389
-25.979137 27.407249 -1.9708295
-26.335249 27.604002 -1.7814289
-26.102346 27.627548 -1.8457563
-25.922163 27.63298 -1.9301742
-26.107254 27.861635 -1.8054491
-25.886597 27.857111 -1.9287666
-25.711815 27.961384 -1.9671168
-26.096601 28.139267 -1.8440666
-25.877913 28.092682 -1.8924834
-25.633118 28.138571 -1.9419836
-25.449034 28.212502 -1.9728
-25.87203 28.331892 -1.8696667
-25.636501 28.371855 -1.8885207
-25.420576 28.39435 -1.9782333
-25.5425 28.547001 -1.956
-26.122295 28.973362 -1.8731132
-25.928833 28.966 -1.9626667
-25.671 28.773001 -1.985
-26.126339 29.040991 -1.795145
-25.873411 29.123283 -1.8385122
-25.665339 29.167713 -1.8849071
-25.376865 29.215475 -1.9556428
-25.632475 29.372404 -1.8139719
-25.413286 29.40181 -1.9279166
-25.784082 29.641083 -1.7595
-25.61739 29.632221 -1.8242395
-25.449106 29.619837 -1.9316181
-25.796291 29.876999 -1.7776251
-25.608656 29.889893 -1.8553222
-25.450691 29.908005 -1.935806
-26.118002 30.154667 -1.7526667
-25.863501 30.136415 -1.7976667
-25.671566 30.1208 -1.8531001
-25.389723 30.115255 -1.9289966
-26.067499 30.366278 -1.7729722
-25.907801 30.367899 -1.8222001
-25.611988 30.380177 -1.8995466
-25.402945 30.386446 -1.9837779
-26.042013 30.643702 -1.7946668
-25.9144 30.623632 -1.8598833
-25.563276 30.648174 -1.9231374
-25.469051 30.619152 -1.9755001
-24.915501 30.6875 -1.9955001
-26.081667 30.907988 -1.7927083
-25.911234 30.88673 -1.8902667
-25.649 30.902 -1.911
-25.462666 30.909834 -1.9863334
-24.907667 30.864002 -1.9871166
-26.085434 31.096167 -1.7976166
-25.943083 31.131002 -1.8965001
-25.564167 31.144083 -1.9586667
-25.473999 31.015999 -1.988
-24.822166 31.087458 -1.9835
-26.069876 31.317375 -1.8269376
-25.953667 31.350166 -1.9043335
-25.740999 31.278 -1.939
-24.854918 31.376112 -1.978
-25.943407 31.646872 -1.9297953
-25.101536 31.670719 -1.9341667
-26.33275 27.744499 -1.74075
-26.230331 27.818335 -1.7460001
-26.075737 29.171751 -1.7272085
-25.943001 29.240501 -1.7275
-26.034376 29.354374 -1.697
-25.896439 29.397625 -1.7351668
-25.887001 29.567209 -1.7210417
-25.985001 29.785999 -1.73
-26.169418 30.167112 -1.7347778
-26.179117 30.409777 -1.7134249
-26.149147 30.626331 -1.7220209
