# .PCD v0.7 - Point Cloud Data file format
VERSION 0.7
FIELDS x y z
SIZE 4 4 4
TYPE F F F
COUNT 1 1 1
WIDTH 181
HEIGHT 1
VIEWPOINT -18.2321 96.2205 -1.35163 -0.354149 -0.00701479 0.0211809 0.934923
POINTS 181
DATA ascii
17.992666 -3.4942832 -0.60010004
18.574955 -3.0643067 -0.62141854
18.695963 -2.8848844 -0.62091392
18.800837 -2.617065 -0.61248147
18.894897 -2.1449285 -0.60053873
18.996513 -1.9930693 -0.63859719
19.073736 -1.8759472 -0.62173426
19.195398 -1.6464211 -0.61639935
19.253851 -1.5936437 -0.59611869
19.198597 -1.490853 -0.61154377
16.38772 -5.8693008 -0.37308115
16.466452 -5.7497778 -0.35091355
16.565441 -5.6042485 -0.38222393
16.700571 -5.4031477 -0.36359385
16.783716 -5.2790284 -0.40188685
16.880163 -5.1358781 -0.37493026
16.982958 -4.9784188 -0.34951389
17.0868 -4.8252435 -0.38618296
17.202408 -4.657743 -0.40108743
17.286997 -4.5333195 -0.40583786
17.39439 -4.3678064 -0.37093896
17.561581 -4.120399 -0.40011871
17.703543 -3.9052038 -0.36397162
17.786848 -3.7802131 -0.34840465
17.892288 -3.6289155 -0.36080992
17.989592 -3.4870605 -0.4038384
18.080004 -3.3491836 -0.37219724
18.37825 -3.2547498 -0.32624999
18.438791 -3.2145028 -0.37810668
18.565639 -3.0670192 -0.35149458
18.692339 -2.8827212 -0.37992951
18.770414 -2.7514305 -0.35020673
18.805374 -2.6239471 -0.36951226
18.703993 -2.4305832 -0.35103109
18.780781 -2.2994585 -0.37582707
18.891485 -2.1378088 -0.35987011
18.992315 -1.9873743 -0.34991273
19.068888 -1.8697147 -0.3510474
19.192745 -1.6375258 -0.3707771
19.255892 -1.5821142 -0.39954981
19.202614 -1.4719568 -0.346843
19.334499 -1.469 -0.454
16.362261 -5.889854 -0.13099046
16.482069 -5.7111878 -0.10340742
16.561296 -5.6009388 -0.14705922
16.694735 -5.3964043 -0.11006199
16.779459 -5.2729974 -0.14790367
16.875111 -5.1257153 -0.12920237
16.977365 -4.9715104 -0.10114585
17.052662 -4.861268 -0.13492608
17.180916 -4.6718655 -0.1361741
17.261354 -4.5526576 -0.14852779
17.387583 -4.365078 -0.12250728
17.494812 -4.1974373 -0.072750002
17.575621 -4.0846057 -0.14792508
17.6973 -3.8968182 -0.099972218
17.781273 -3.7721143 -0.099319547
17.869719 -3.6463604 -0.11149556
17.985355 -3.4785316 -0.14769542
18.083395 -3.3284783 -0.13385653
18.406563 -3.209887 -0.13236988
18.554098 -3.0712731 -0.1201094
18.661612 -2.9142034 -0.12632689
18.760742 -2.7508283 -0.051189661
18.801796 -2.6102505 -0.13133478
18.718418 -2.4050369 -0.12150081
18.787592 -2.2792377 -0.10077392
18.881685 -2.1370821 -0.11721782
18.986305 -1.9791951 -0.10158696
19.064146 -1.8617753 -0.10059764
19.18795 -1.6623873 -0.13428549
19.252426 -1.5668731 -0.19846563
16.355656 -5.8866458 0.14889169
16.478434 -5.7096748 0.083341382
16.56859 -5.5719061 0.13425681
16.683275 -5.3970633 0.13675438
16.772924 -5.2622743 0.14854999
16.872086 -5.1180334 0.13044795
16.976368 -4.9663973 0.10008255
17.045525 -4.8597765 0.13625148
17.185114 -4.6500874 0.12575698
17.252569 -4.5504026 0.050805554
17.374508 -4.3687201 0.13395321
17.495071 -4.1916361 0.10414584
17.569624 -4.0755529 0.13531663
17.687532 -3.9012949 0.12104564
17.779331 -3.765285 0.10070861
17.867887 -3.6479113 0.13182984
18.128302 -3.606082 0.216544
17.981163 -3.4706116 0.094902225
18.092545 -3.3776152 0.11395415
18.319323 -3.3372962 0.21536915
18.166557 -3.2363403 0.071052551
18.420626 -3.196408 0.13311391
18.538759 -3.0813007 0.12521662
18.659971 -2.896039 0.11563688
18.799999 -2.7620001 0.199
18.720699 -2.7010908 0.14842501
18.805651 -2.6237206 0.1397427
18.715677 -2.4187105 0.082544893
19.011499 -2.3185477 0.20361426
18.889875 -2.1533275 0.090922773
19.129515 -2.1128132 0.17677623
18.98208 -1.9765112 0.078919545
19.121193 -1.8639767 0.096361861
16.37043 -5.8534026 0.38723925
16.487696 -5.679914 0.35069942
16.563622 -5.5615273 0.37601212
16.687889 -5.3798079 0.37739134
16.769806 -5.2573442 0.39920807
16.858204 -5.1238785 0.36999577
16.970831 -4.9555449 0.34939381
17.047464 -4.8379416 0.37770319
17.177982 -4.6481857 0.36910498
17.250181 -4.5497632 0.25001383
17.355684 -4.3823757 0.36824837
17.476673 -4.2026749 0.37349135
17.568979 -4.0690961 0.37721279
17.693926 -3.8826048 0.36529437
17.776075 -3.7605503 0.35117152
17.861782 -3.701052 0.36139545
18.131809 -3.6191125 0.39844567
18.246311 -3.4496732 0.39922956
18.322325 -3.3391514 0.37931043
18.429386 -3.2124429 0.37307543
18.580059 -3.0835457 0.36342657
18.692898 -2.904542 0.36542118
18.780861 -2.7726357 0.35121894
18.81632 -2.6418695 0.39926919
18.931137 -2.4279981 0.36294672
19.030579 -2.281714 0.34983706
19.138729 -2.1192677 0.37664804
16.337648 -5.8842511 0.6313132
16.450403 -5.7162676 0.62937689
16.547491 -5.5758557 0.6368717
16.67067 -5.3889637 0.63709211
17.339743 -4.3929377 0.62857318
17.461853 -4.2116084 0.64830452
17.557379 -4.066143 0.6322639
17.684513 -3.8750272 0.63583297
17.765938 -3.7549903 0.60040522
17.834541 -3.6903503 0.60257024
18.12957 -3.6134577 0.62708306
18.222467 -3.4687989 0.67572987
18.319828 -3.3270574 0.62109917
18.420332 -3.205225 0.62924439
18.564732 -3.0816386 0.63465124
18.664467 -2.9008849 0.63785505
18.766317 -2.7595809 0.64961743
18.811577 -2.6306367 0.64003265
18.926327 -2.4195616 0.63660568
19.003201 -2.3070114 0.64000756
19.128233 -2.120564 0.64220148
16.334911 -5.874239 0.86973894
16.454924 -5.6976094 0.86950409
16.530512 -5.5825548 0.89654797
16.651691 -5.4043779 0.87164736
17.539625 -4.0834494 0.89600557
17.644894 -3.9225345 0.87851083
17.759245 -3.7516515 0.8494975
17.850796 -3.6819131 0.85646451
18.134842 -3.5908542 0.86286724
18.211941 -3.4718866 0.89985722
18.318117 -3.3170476 0.86223578
18.426136 -3.188081 0.86811799
18.573469 -3.0611248 0.87972015
18.682182 -2.8937974 0.86279178
18.770264 -2.7579188 0.8985936
18.80719 -2.6457853 0.88384318
18.929918 -2.4004467 0.88428748
19.0005 -2.3050001 0.82050002
19.11758 -2.1243858 0.88868773
19.206079 -1.9759395 0.86587507
16.334049 -5.8627782 1.139469
16.443741 -5.7032051 1.1288998
17.754395 -3.7503378 1.049662
18.768646 -2.7583921 1.0487843
18.800964 -2.636081 1.1159011
16.328844 -5.8698745 1.3981981
16.40406 -5.6398478 1.4220166
17.563709 -4.0736442 1.3937427
