# .PCD v0.7 - Point Cloud Data file format
VERSION 0.7
FIELDS x y z
SIZE 4 4 4
TYPE F F F
COUNT 1 1 1
WIDTH 75
HEIGHT 1
VIEWPOINT -18.2321 96.2205 -1.35163 -0.354149 -0.00701479 0.0211809 0.934923
POINTS 75
DATA ascii
-44.893002 9.8559999 15.718
-44.069702 7.889267 15.947034
-44.280502 8.1514997 15.993999
-44.132095 8.1171579 15.89207
-44.331852 8.4004164 15.941188
-44.204166 8.3132496 15.872333
-44.533585 8.6921673 15.96925
-44.345985 8.62609 15.831801
-44.590332 8.9241667 15.913333
-44.440525 8.8512354 15.81271
-44.82 9.2469997 15.981334
-44.623985 9.1350689 15.851618
-44.855095 9.3936062 15.935019
-44.699207 9.4029303 15.796417
-45.02425 9.6520004 15.97525
-44.877811 9.6318312 15.850879
-45.076157 9.8428173 15.93325
-44.931728 9.8742237 15.786856
-44.165787 7.6515121 16.109785
-44.314335 7.9599166 16.194778
-44.176334 7.8706999 16.06875
-44.354038 8.1298122 16.122293
-44.535461 8.4147396 16.18029
-44.448662 8.3493166 16.103647
-44.603722 8.6207895 16.122257
-44.494999 8.5299997 16.023001
-44.80154 8.9244366 16.193127
-44.692654 8.828023 16.100773
-44.860909 9.1330843 16.126144
-45.043278 9.4390545 16.168461
-44.954277 9.3757401 16.07596
-45.107628 9.6407537 16.120409
-44.973999 9.5100002 16.006001
-45.165543 9.7847395 16.112961
-44.241669 7.7371669 16.250834
-44.360085 7.8604941 16.355562
-44.553844 8.1444559 16.424723
-44.459126 8.0779676 16.328821
-44.636173 8.3621111 16.38299
-44.787628 8.6408339 16.401438
-44.718044 8.6240835 16.302418
-45.005001 8.9849997 16.474001
-44.887112 8.8678589 16.37566
-45.057129 9.1583061 16.421349
-44.962646 9.1075621 16.305305
-45.119354 9.3721228 16.348455
-45.289364 9.6297369 16.425333
-45.206844 9.6003475 16.307737
-44.446449 7.6732507 16.560801
-44.572689 7.9092259 16.651346
-44.471825 7.7977247 16.589325
-44.788002 8.2404995 16.734501
-44.656715 8.134037 16.606096
-44.820618 8.389967 16.651403
-44.731667 8.3127499 16.570333
-44.921467 8.6294994 16.625368
-45.064247 8.8677254 16.65571
-44.958584 8.7894173 16.554249
-45.269791 9.1952496 16.733208
-45.164848 9.1258059 16.616194
-45.320488 9.4099245 16.650803
-45.214169 9.3250837 16.543083
-45.362244 9.5677004 16.606899
-44.760124 7.9549999 16.955
-44.683357 7.8753438 16.869137
-44.808228 8.1208515 16.883539
-44.71875 8.059 16.761499
-45.015251 8.4745007 16.903126
-44.918839 8.3558512 16.855175
-45.074593 8.6535654 16.882317
-44.998001 8.5249996 16.827
-45.183273 8.8840923 16.854418
-45.302044 9.1340227 16.877583
-45.223 9.0665998 16.7598
-45.410252 9.3646259 16.843689
