# .PCD v0.7 - Point Cloud Data file format
VERSION 0.7
FIELDS x y z
SIZE 4 4 4
TYPE F F F
COUNT 1 1 1
WIDTH 59
HEIGHT 1
VIEWPOINT -18.2321 96.2205 -1.35163 -0.354149 -0.00701479 0.0211809 0.934923
POINTS 59
DATA ascii
-3.1186173 -41.858875 12.404522
-3.259903 -41.952858 12.696175
-3.1020849 -41.831367 12.638994
-2.9109724 -41.778168 12.647712
-3.1437716 -41.840813 12.878483
-2.9070501 -41.764423 12.900464
-3.1419582 -41.822578 13.15834
-2.9094722 -41.755398 13.102813
-2.9116251 -41.748581 13.244751
-3.1421711 -41.810696 13.396129
-2.9119406 -41.744839 13.396399
-3.1460369 -41.802097 13.621173
-3.0536666 -41.749557 13.746999
-2.9066372 -41.735874 13.606394
-3.2888334 -41.931503 13.885875
-3.1849725 -41.818005 13.861777
-3.0535278 -41.744919 13.899205
-2.9059861 -41.729115 13.851181
-3.3034446 -41.944447 14.147334
-3.1936896 -41.819683 14.106519
-3.0485742 -41.734711 14.147933
-2.9131281 -41.717617 14.142593
-3.3365417 -42.018707 14.394375
-3.3006668 -41.93367 14.389167
-3.177314 -41.797325 14.376396
-3.0468612 -41.724895 14.402167
-2.9214177 -41.710052 14.404371
-3.2982085 -41.923294 14.6075
-3.1928823 -41.80175 14.651978
-3.0449445 -41.717499 14.598778
-2.9243252 -41.702118 14.630293
-3.3096669 -41.946404 14.877533
-3.1968126 -41.798439 14.894313
-3.0377007 -41.708504 14.877883
-2.9048488 -41.699055 14.852851
-3.2975397 -41.921917 15.114652
-3.15415 -41.754108 15.13914
-3.0332251 -41.701691 15.126318
-2.9043853 -41.692841 15.131084
-3.2855682 -41.898823 15.367743
-3.1914167 -41.775414 15.395916
-3.0764437 -41.711208 15.382043
-2.9140987 -41.684711 15.397942
-3.2962778 -41.913811 15.647639
-3.22 -41.795223 15.636666
-3.085355 -41.711338 15.621744
-2.9114444 -41.681221 15.627133
-3.2944584 -41.915791 15.8995
-3.2175 -41.788834 15.884667
-3.1014156 -41.712753 15.868711
-2.9212224 -41.677578 15.868489
-3.2784166 -41.877213 16.119375
-3.2149999 -41.782223 16.144472
-3.0965235 -41.707581 16.09763
-2.9091113 -41.676548 16.126606
-3.2616665 -41.836498 16.397915
-3.21225 -41.774124 16.399124
-3.1049168 -41.706211 16.358263
-2.9255333 -41.672871 16.370134
