# .PCD v0.7 - Point Cloud Data file format
VERSION 0.7
FIELDS x y z
SIZE 4 4 4
TYPE F F F
COUNT 1 1 1
WIDTH 98
HEIGHT 1
VIEWPOINT -18.2321 96.2205 -1.35163 -0.354149 -0.00701479 0.0211809 0.934923
POINTS 98
DATA ascii
-50.500999 4.9770002 23.174
-50.321999 4.9790001 23.138
-50.133667 4.9775004 23.140335
-49.945999 4.9744997 23.1415
-52.120136 5.1363835 23.236317
-50.853107 5.1649165 23.144945
-50.622032 5.1341171 23.130667
-50.385883 5.1300998 23.129799
-50.143978 5.1254525 23.132511
-49.900776 5.151361 23.134417
-49.55888 5.0857663 23.138634
-49.442524 5.1187253 23.197975
-49.000999 5.0669999 23.190001
-48.598286 5.1067147 23.098833
-51.647663 5.4113336 23.130667
-51.389122 5.3643332 23.112167
-51.126068 5.2973337 23.115465
-50.859558 5.3018889 23.11611
-50.592999 5.3630004 23.115
-50.348499 5.3499165 23.11846
-50.120876 5.39782 23.118719
-49.89925 5.4642501 23.11775
-49.366302 5.4065595 23.165274
-48.914497 5.3509998 23.1835
-52.072002 5.6570005 23.080002
-51.858269 5.6925211 23.086292
-51.616932 5.6604004 23.089334
-51.405689 5.6157913 23.094189
-51.13026 5.6215911 23.097349
-50.869648 5.6185236 23.100904
-50.651455 5.6339288 23.102453
-50.366848 5.6481428 23.105013
-50.10976 5.6284051 23.107534
-49.87653 5.628931 23.110001
-49.743004 5.7467499 23.106249
-49.330372 5.5947418 23.136295
-49.231583 5.6925831 23.185139
-48.791 5.6669998 23.167
-48.617859 5.6233811 23.114954
-52.029335 5.7993336 23.075668
-51.882191 5.8646674 23.079056
-51.63686 5.8818889 23.080027
-51.375919 5.8491249 23.083565
-51.134819 5.8886175 23.085583
-50.862354 5.867672 23.0898
-50.632217 5.8522501 23.092398
-50.352646 5.8596668 23.094482
-50.106003 5.8671112 23.095503
-49.858776 5.8701663 23.097111
-49.694168 5.8721666 23.098833
-49.334499 5.75 23.1075
-49.183323 5.8978233 23.153273
-48.817001 5.7729998 23.191999
-48.596336 5.8846664 23.123169
-48.368851 5.8717833 23.076967
-51.835228 6.1261668 23.066669
-51.620754 6.1108723 23.070465
-51.371361 6.1410627 23.071083
-51.11972 6.1285553 23.073778
-50.871971 6.0906334 23.079166
-50.640518 6.0959501 23.082018
-50.376717 6.0934668 23.083216
-50.128517 6.0752835 23.086599
-49.903999 6.0485001 23.087833
-49.638336 6.1115556 23.086664
-49.441338 6.2363334 23.084
-49.104092 6.1255298 23.143457
-48.970665 6.2425556 23.24189
-48.562 6.1900001 23.129
-51.647377 6.4107504 23.055832
-51.350113 6.4504447 23.05689
-51.114708 6.4204998 23.060749
-50.881104 6.414834 23.064266
-50.62672 6.3947334 23.068466
-50.39053 6.3658752 23.071054
-50.139809 6.3697085 23.073252
-49.882824 6.3694673 23.073683
-49.627949 6.3531804 23.074997
-49.409107 6.4083333 23.075333
-49.049347 6.3283134 23.10215
-48.957253 6.4162607 23.166002
-49.389748 6.52075 23.07
-52.146999 5.2474999 23.266001
-51.893387 5.1690001 23.277056
-51.627174 5.1464643 23.30525
-51.418671 5.1311331 23.322166
-49.359585 5.1312499 23.298252
-52.128174 5.3631387 23.305902
-51.903519 5.2953129 23.316021
-51.71563 5.2843752 23.303501
-51.469002 5.257 23.263
-49.26886 5.3956671 23.284344
-49.139999 5.4445 23.296
-49.164093 5.6439629 23.279318
-49.074707 5.8699169 23.287334
-48.982002 5.8955002 23.278999
-48.96925 6.0874996 23.276501
-48.884838 6.3672662 23.2712
