# .PCD v0.7 - Point Cloud Data file format
VERSION 0.7
FIELDS x y z
SIZE 4 4 4
TYPE F F F
COUNT 1 1 1
WIDTH 1677
HEIGHT 1
VIEWPOINT -18.2321 96.2205 -1.35163 -0.354149 -0.00701479 0.0211809 0.934923
POINTS 1677
DATA ascii
20.628927 96.812065 51.399639
20.803167 96.768829 51.413834
20.226002 97.211998 51.356499
20.151749 97.380753 51.381248
19.980999 97.746506 51.250999
20.069 97.613602 51.380798
19.960499 97.897003 51.3815
19.88175 98.12175 51.3955
19.795 98.342804 51.392998
19.692249 98.608505 51.371002
19.58 98.870667 51.357666
19.431999 99.248001 51.338001
19.5165 99.141998 51.403
19.235001 99.348999 51.375
19.345501 99.291702 51.398598
19.511999 99.306999 51.493
21.847834 96.472832 51.540165
22.034 96.416 51.528
21.153721 96.700783 51.607441
21.381498 96.637703 51.621899
21.5065 96.600502 51.639
20.40975 96.9245 51.611752
20.628284 96.859001 51.61607
20.885166 96.793663 51.645172
21.048 96.761002 51.719002
20.198999 97.384163 51.585163
20.12775 97.611748 51.662498
19.997 97.837997 51.518002
20.035751 97.848999 51.659252
19.928402 98.114403 51.6166
19.816999 98.385338 51.612835
19.710333 98.64933 51.566666
19.785 98.528999 51.686001
19.643166 98.843666 51.637669
19.559 99.070671 51.630665
19.2435 99.406006 51.626499
19.405375 99.405746 51.632374
19.511 99.31234 51.674332
21.363876 96.697311 51.865124
21.587799 96.634705 51.904003
21.845001 96.567894 51.945332
20.424 96.970802 51.838398
20.634499 96.912933 51.861313
20.858583 96.855751 51.895947
21.101875 96.775375 51.867126
20.2265 97.410004 51.808502
20.283501 97.348007 51.931
20.165249 97.633499 51.881748
20.070002 97.848404 51.880394
19.957251 98.155251 51.850002
20.035 98.042999 51.980999
19.873749 98.3685 51.854248
19.741001 98.7015 51.808998
19.813334 98.55233 51.876331
19.678499 98.913254 51.908752
19.754 98.772003 51.980999
19.577602 99.151802 51.869396
19.478001 99.499001 51.825001
19.509501 99.315002 51.898499
19.346582 99.547676 51.877914
21.424667 96.726997 52.092499
21.632 96.680702 52.1516
21.858784 96.601357 52.107784
22.086399 96.541603 52.149597
22.257999 96.509003 52.244999
20.454 96.996002 52.043999
20.615667 96.970001 52.088501
20.863125 96.906311 52.133625
21.116856 96.819931 52.100716
21.301899 96.7733 52.129799
20.421398 97.104202 52.159199
20.5665 97.011002 52.201
20.309334 97.368675 52.129333
20.208 97.648804 52.125801
20.1178 97.884399 52.142799
19.992001 98.163002 52.023998
20.022999 98.155754 52.163498
19.9296 98.353798 52.120003
19.8326 98.634995 52.114002
19.709999 98.901497 52.1115
19.761 98.815506 52.135498
19.640598 99.130394 52.134998
19.549 99.340752 52.128998
19.223999 99.702499 52.113503
19.36775 99.666168 52.11858
19.5 99.632004 52.161999
22.449249 96.487999 52.403
22.572498 96.460495 52.452999
21.6667 96.712898 52.338097
21.886446 96.66317 52.403614
22.1075 96.585579 52.379581
22.332401 96.522202 52.375599
20.6975 96.991501 52.273499
20.884375 96.955246 52.380749
21.107748 96.887314 52.366314
21.408249 96.797668 52.380081
21.570501 96.768166 52.452332
20.446501 97.133247 52.38575
20.622286 97.037216 52.390785
20.3535 97.365494 52.371998
20.24 97.674004 52.345001
20.275333 97.608337 52.374004
20.16925 97.844002 52.361504
20.083 98.110001 52.374249
19.967999 98.405502 52.3885
20.018 98.307495 52.412498
19.8948 98.605606 52.369396
19.716999 98.945 52.269001
19.802248 98.839493 52.378498
19.700666 99.103668 52.368668
19.590002 99.383667 52.377335
19.450001 99.749001 52.289001
19.513 99.700996 52.287998
19.232 99.751999 52.296001
19.352249 99.817245 52.396877
19.523001 99.757004 52.409
22.590334 96.489662 52.587666
21.7435 96.737 52.567001
21.884501 96.710327 52.623333
22.138166 96.636169 52.630333
22.35125 96.562836 52.601414
22.542999 96.511002 52.66
20.917 96.985008 52.561665
21.133438 96.934311 52.615376
21.367062 96.867943 52.640381
21.6024 96.7948 52.641701
21.75 96.775002 52.721001
20.476501 97.129501 52.600502
20.64543 97.083145 52.619499
20.862751 97.024124 52.660751
20.413399 97.348801 52.615196
20.3242 97.606003 52.614601
20.200001 97.921753 52.606747
20.257999 97.774498 52.619999
20.122749 98.136002 52.610252
19.9755 98.451004 52.591
20.054749 98.331757 52.658249
19.920668 98.658997 52.592999
19.831202 98.879997 52.615002
19.713667 99.17733 52.557667
19.767 99.09967 52.701336
19.647202 99.395996 52.646599
19.562601 99.615005 52.664204
19.361715 99.926704 52.605858
19.522499 99.760498 52.543503
19.206001 100.0155 52.675003
22.68 96.496002 52.764999
21.954 96.728996 52.793999
22.0959 96.702705 52.871704
22.373613 96.616043 52.862389
22.599251 96.54908 52.861332
21.119999 96.984001 52.821999
21.355499 96.927162 52.873089
21.602499 96.852501 52.885418
21.859945 96.778557 52.902023
20.49 97.204002 52.776001
20.624786 97.138855 52.846577
20.853083 97.081665 52.898666
21.063499 97.018753 52.89225
20.446751 97.395996 52.86475
20.5 97.251999 52.888
20.36775 97.623245 52.871002
20.221001 97.956001 52.872002
20.294001 97.839996 52.880001
20.161501 98.1605 52.84375
20.071751 98.425751 52.887249
19.963333 98.648338 52.799667
20.004501 98.608002 52.943001
19.9004 98.868393 52.884399
19.78875 99.161003 52.9105
19.696751 99.408997 52.89325
19.601999 99.644753 52.918499
19.531334 99.82267 52.891331
19.230999 100.061 52.874001
19.397167 100.068 52.867329
19.511 100.086 52.915001
22.154249 96.727005 53.056873
22.351145 96.678703 53.120857
22.625101 96.600403 53.123604
22.771 96.593002 53.208
21.386858 96.964775 53.105145
21.622299 96.904602 53.146301
21.848749 96.833061 53.119751
22.08 96.782501 53.201504
20.626417 97.203743 53.140079
20.872555 97.126434 53.123444
21.150143 97.044289 53.131355
21.302 97.009003 53.167
20.474501 97.452499 53.1385
20.516665 97.34333 53.117336
20.4035 97.637749 53.098
20.323498 97.877998 53.1315
20.209999 98.153999 53.105
20.25 98.109001 53.178001
20.1215 98.384834 53.099335
20.039501 98.616997 53.165749
19.948999 98.877663 53.139668
19.8542 99.090202 53.121998
19.736 99.434494 53.138
19.783001 99.314499 53.138
19.669399 99.605392 53.150196
19.570749 99.858253 53.154251
19.2395 100.2125 53.140999
19.401875 100.19913 53.118626
19.521999 100.151 53.084
19.193001 100.356 53.231998
22.403702 96.711998 53.333199
22.615501 96.65995 53.376446
22.75 96.614342 53.355003
21.634562 96.956879 53.392437
21.905067 96.867737 53.363396
22.141428 96.801796 53.377289
22.3405 96.758499 53.456501
20.677299 97.235596 53.346901
20.864201 97.180695 53.369099
21.139832 97.101326 53.363338
21.390125 97.022125 53.360626
21.509001 97.012001 53.491001
20.481001 97.489998 53.292999
20.575602 97.3564 53.420998
20.459665 97.626335 53.373001
20.358999 97.887665 53.369999
20.272667 98.109337 53.367336
20.195751 98.349998 53.393749
20.10125 98.591003 53.380501
19.960749 98.944748 53.341999
20.035999 98.783005 53.3965
19.907999 99.093666 53.416
19.745001 99.490997 53.303001
19.81975 99.334999 53.36375
19.7015 99.639496 53.4165
19.754 99.538002 53.421001
19.6196 99.862999 53.372406
19.526001 100.113 53.367603
19.188999 100.342 53.363503
19.3465 100.33192 53.3745
22.445 96.742996 53.547001
22.623499 96.705597 53.604103
22.768 96.678497 53.668999
21.695499 96.977249 53.571499
21.868082 96.941246 53.64333
22.122499 96.861076 53.623714
22.348429 96.79657 53.661568
20.924297 97.213196 53.597496
21.119715 97.160568 53.60157
21.360945 97.090988 53.636059
21.616249 97.027496 53.668747
20.645187 97.351433 53.63588
20.8165 97.267998 53.671501
20.455 97.725998 53.52
20.518667 97.578003 53.608002
20.4254 97.864395 53.639404
20.310801 98.139793 53.605797
20.215334 98.397667 53.597332
20.285 98.301003 53.734001
20.135124 98.593872 53.613251
19.993 98.955002 53.534
20.0495 98.8685 53.642998
19.931751 99.157745 53.631748
19.83275 99.408501 53.5835
19.716999 99.728996 53.599998
19.7775 99.580002 53.661247
19.6735 99.860504 53.62075
19.569 100.12779 53.648998
19.2045 100.4355 53.592999
19.379501 100.4595 53.613197
19.503 100.469 53.673
22.691 96.722504 53.767502
22.797333 96.731163 53.922832
21.921625 96.956001 53.816872
22.120001 96.914597 53.879601
22.356857 96.841713 53.877716
22.595083 96.780334 53.901417
21.117901 97.219589 53.8615
21.358833 97.145912 53.868835
21.611561 97.073433 53.881935
21.804667 97.018005 53.883335
20.644999 97.398003 53.879333
20.842251 97.296936 53.872192
20.554998 97.611801 53.843597
20.4545 97.914253 53.875252
20.532 97.763 53.98
20.357998 98.132751 53.848751
20.240999 98.415001 53.780998
20.278999 98.384338 53.893337
20.18125 98.657997 53.924751
20.086 98.876747 53.847252
19.9645 99.143997 53.8475
20.015667 99.078331 53.872665
19.8932 99.396606 53.862202
19.80275 99.629005 53.906498
19.710751 99.880745 53.85725
19.620399 100.1096 53.862801
19.546501 100.319 53.900497
19.202999 100.6315 53.914501
19.3715 100.5803 53.850697
19.519001 100.56 53.858498
22.872 96.737 54.078999
21.962 96.983498 54.004501
22.15057 96.964149 54.141933
22.370199 96.880203 54.091698
22.615499 96.822403 54.131203
22.814169 96.761497 54.141171
21.199001 97.240997 54.084499
21.385124 97.194054 54.123501
21.658056 97.112389 54.12117
21.860916 97.042915 54.114666
22.022499 97.013 54.169998
20.669001 97.399002 54.102501
20.883749 97.3405 54.12006
21.111418 97.282082 54.154331
20.599001 97.640198 54.112801
20.493 97.933998 54.128998
20.543499 97.824997 54.151001
20.4244 98.087601 54.102406
20.3356 98.352196 54.116802
20.2115 98.6325 54.141502
20.264999 98.546997 54.126331
20.132332 98.889336 54.112499
19.979 99.223999 54.028
20.05475 99.098007 54.154999
19.952499 99.378754 54.137001
19.868502 99.61425 54.149002
19.721001 99.938004 54.025497
19.784666 99.846672 54.156666
19.6682 100.14381 54.139801
19.587999 100.35651 54.161751
19.18 100.709 54.084999
19.363501 100.7025 54.068497
19.539331 100.67367 54.147663
19.350668 100.77051 54.196331
22.243999 96.981003 54.343498
22.383249 96.941498 54.362751
22.64625 96.87365 54.389198
22.847834 96.807167 54.379669
21.409668 97.234833 54.358501
21.635572 97.167213 54.340069
21.882999 97.0923 54.3619
22.1199 97.032104 54.400902
20.724001 97.451248 54.35825
20.878084 97.395996 54.359669
21.13125 97.329834 54.388
21.299667 97.279327 54.397327
20.650499 97.597504 54.374249
20.563599 97.875595 54.365997
20.440666 98.153664 54.339336
20.514 98.049004 54.417
20.381199 98.370804 54.389599
20.225 98.704002 54.317001
20.296 98.601341 54.402004
20.185499 98.874245 54.377251
20.084202 99.147995 54.398804
19.9765 99.411499 54.313
20.008499 99.389496 54.435001
19.8944 99.6418 54.3834
19.796333 99.912994 54.34367
19.695499 100.18651 54.389
19.768 100.021 54.395
19.611 100.422 54.384335
19.547667 100.60266 54.381001
19.22175 100.8405 54.341999
19.377701 100.8661 54.379005
19.504 100.869 54.433998
22.470501 96.97625 54.622253
22.607 96.943878 54.633747
22.810902 96.884506 54.644798
21.647301 97.205299 54.527199
21.869688 97.162247 54.637188
22.095901 97.092995 54.625694
22.3272 97.025803 54.628197
20.7425 97.480499 54.631001
20.889099 97.457504 54.627098
21.09293 97.393784 54.623074
21.366375 97.313622 54.626312
21.5875 97.258331 54.679501
20.696249 97.641998 54.622749
20.61425 97.860497 54.62175
20.466499 98.181 54.593002
20.5385 98.086746 54.640251
20.41275 98.429001 54.644001
20.319201 98.635597 54.617401
20.214666 98.911659 54.575668
20.252001 98.851997 54.669998
20.135 99.152496 54.633999
20.049334 99.385002 54.609333
19.945499 99.652252 54.621502
20.030001 99.507004 54.729
19.849998 99.894745 54.598499
19.738501 100.229 54.633499
19.782333 100.10367 54.622665
19.67 100.37167 54.602997
19.583599 100.6188 54.610401
19.361502 100.969 54.574665
19.528666 100.88534 54.657333
19.195999 101.07133 54.662334
19.386333 101.04067 54.710667
22.493 96.998001 54.771
22.666168 96.972923 54.857254
22.8948 96.906265 54.861671
21.867802 97.210205 54.835499
22.137644 97.139282 54.881573
22.363445 97.071114 54.876778
22.549 97.026749 54.939251
20.953499 97.479996 54.813999
21.134602 97.444397 54.890602
21.348072 97.373856 54.874855
21.615599 97.299301 54.8815
21.7985 97.259499 54.941002
20.720001 97.6735 54.8885
20.823299 97.5299 54.884205
20.650249 97.8815 54.86425
20.567625 98.102631 54.862873
20.470249 98.375504 54.86525
20.361801 98.647598 54.854393
20.278334 98.875 54.860332
20.186666 99.133827 54.856998
20.090248 99.399498 54.888748
19.966333 99.700661 54.834
20.038 99.554504 54.891998
19.909199 99.888199 54.903004
19.81975 100.1175 54.866001
19.72525 100.3575 54.848499
19.633249 100.61975 54.854
19.542665 100.84733 54.851334
19.199333 101.09566 54.828999
19.371 101.12983 54.888836
19.539 101.073 54.912998
22.864786 96.965004 55.083641
21.936001 97.231995 55.035999
22.12956 97.194626 55.130505
22.38875 97.115997 55.134876
22.634501 97.04528 55.125496
22.849001 97.011002 55.238998
21.195625 97.476868 55.110878
21.386875 97.410751 55.099247
21.621201 97.352203 55.139351
21.848917 97.276497 55.123081
20.844715 97.594788 55.113289
21.076874 97.521751 55.156376
20.700167 97.890831 55.130665
20.610001 98.130798 55.144203
20.459999 98.498001 55.050999
20.519251 98.3685 55.138252
20.4182 98.653397 55.126801
20.32325 98.876999 55.087502
20.2365 99.167999 55.158001
20.285 99.036499 55.182999
20.1686 99.306992 55.120003
19.997 99.736 55.042
20.077499 99.601997 55.155502
19.952999 99.9095 55.167503
20.003 99.769997 55.153
19.878599 100.09979 55.136005
19.714001 100.497 55.021
19.786001 100.31675 55.101749
19.683001 100.63081 55.122803
19.598499 100.83501 55.14875
19.191999 101.196 55.036999
19.370001 101.22666 55.070332
19.5315 101.04125 55.101749
19.188667 101.37699 55.180164
19.403 101.27767 55.182667
19.504 101.284 55.209999
22.966251 96.986496 55.3545
22.182669 97.220337 55.309998
22.346212 97.189995 55.388355
22.601856 97.098503 55.341999
22.833801 97.040306 55.383099
21.240999 97.491997 55.271999
21.401751 97.46299 55.35733
21.646917 97.39975 55.387085
21.899834 97.320412 55.373997
22.085501 97.268669 55.418163
20.875553 97.646156 55.3657
21.110167 97.560669 55.385498
21.283501 97.530998 55.473
20.702999 97.975998 55.292
20.755001 97.856499 55.3545
20.6534 98.1464 55.391003
20.553999 98.397331 55.358334
20.463667 98.645996 55.343662
20.531 98.524002 55.466999
20.376202 98.874199 55.355797
20.246 99.223 55.324001
20.317667 99.091003 55.438335
20.179001 99.403999 55.366997
20.253 99.260002 55.437
20.1036 99.635201 55.394001
19.969 99.995003 55.353001
20.011667 99.82267 55.364334
19.925751 100.13425 55.406002
19.816 100.37321 55.356598
19.702333 100.69 55.347332
19.788 100.519 55.484001
19.620001 100.89201 55.362335
19.559999 101.082 55.378666
19.170332 101.35467 55.337666
19.365999 101.38483 55.393917
19.518 101.367 55.392998
22.4172 97.213196 55.604198
22.631857 97.148857 55.611145
22.879164 97.085228 55.627506
21.454 97.498001 55.568001
21.627213 97.458931 55.630501
21.847073 97.389786 55.625
22.127668 97.306831 55.625504
22.296 97.269341 55.673832
20.908001 97.672119 55.603252
21.112701 97.614098 55.630199
21.335598 97.545708 55.634697
20.788498 97.882004 55.61425
20.706249 98.130753 55.613503
20.593124 98.397377 55.640999
20.489 98.663002 55.602329
20.545 98.598495 55.647003
20.422249 98.873001 55.605999
20.339251 99.149246 55.652
20.2255 99.473999 55.676003
20.262501 99.316002 55.606499
20.150501 99.637497 55.641502
20.05875 99.878754 55.624001
19.963249 100.15625 55.637749
19.866167 100.38683 55.627167
19.710499 100.6855 55.567501
19.764666 100.59434 55.577332
19.67675 100.87975 55.620251
22.465 97.246002 55.82
22.647999 97.203575 55.875217
22.887699 97.135109 55.864502
23.038332 97.090492 55.895664
21.685001 97.433502 55.82
21.884279 97.411331 55.865444
22.141312 97.359314 55.871372
22.3554 97.2948 55.880604
20.949167 97.708336 55.839672
21.109499 97.663246 55.87825
21.375448 97.590195 55.880951
21.566999 97.539246 55.890251
20.85 97.838211 55.874199
20.737 98.163002 55.854
20.779499 98.088753 55.898499
20.652599 98.363396 55.842201
20.5655 98.537498 55.905502
20.459999 98.893501 55.860001
20.517 98.811501 55.9165
20.404598 99.106606 55.886604
20.299749 99.323502 55.845249
20.207001 99.622658 55.876003
20.25 99.603996 55.978001
20.114801 99.852592 55.862999
19.997 100.157 55.813
20.036667 100.10266 55.916332
19.928749 100.349 55.861752
19.815998 100.61279 55.8386
19.721001 100.9315 55.9175
19.775 100.848 55.956001
19.647501 101.11926 55.8605
22.643002 97.241501 56.030998
22.850836 97.193748 56.089336
23.049835 97.14933 56.142666
21.891001 97.476242 56.095749
22.14307 97.42028 56.130215
22.392788 97.341354 56.132145
22.598417 97.286079 56.163586
22.761 97.265999 56.237
20.9645 97.736496 56.008499
21.156099 97.701805 56.112099
21.3515 97.652077 56.142414
21.641251 97.566254 56.117168
21.8445 97.5215 56.182999
20.919374 97.826874 56.160873
21.034 97.755501 56.204498
20.82975 98.098999 56.14875
20.685667 98.375999 56.048328
20.762001 98.296005 56.157997
20.6322 98.619194 56.151203
20.48 98.998001 56.055
20.542999 98.833336 56.138996
20.439751 99.150749 56.144753
20.346001 99.381256 56.105999
20.205 99.737999 56.066002
20.279999 99.592499 56.1675
20.160751 99.882996 56.121002
20.070999 100.15425 56.145248
19.942331 100.4255 56.072498
20.021999 100.299 56.168999
19.875 100.637 56.07
19.805 100.86825 56.140877
19.709 101.13033 56.148335
22.925333 97.215843 56.286163
23.0998 97.184097 56.380707
22.124834 97.480003 56.348003
22.370071 97.407356 56.383282
22.609375 97.343376 56.395123
22.8458 97.279312 56.419701
21.201166 97.739998 56.326336
21.398001 97.692993 56.345711
21.625875 97.62706 56.356564
21.860723 97.563721 56.390118
22.07675 97.515251 56.441498
20.935667 97.890327 56.378002
21.095875 97.792374 56.400749
20.86525 98.120499 56.383003
20.722 98.455505 56.320999
20.793001 98.329338 56.40633
20.687752 98.62175 56.423004
20.591501 98.850998 56.365501
20.4755 99.161499 56.322998
20.531 99.078995 56.429497
20.3988 99.372002 56.368999
20.302999 99.660667 56.393665
20.195999 99.894997 56.34
20.278999 99.772003 56.444
20.133751 100.1125 56.405502
19.984667 100.47233 56.380665
20.052666 100.33234 56.378666
19.915749 100.66901 56.327
19.8414 100.9116 56.394798
19.698 101.204 56.276001
19.759501 101.1505 56.410999
23.137501 97.227997 56.602501
22.370834 97.459839 56.601837
22.641251 97.384422 56.608334
22.906799 97.312599 56.646801
23.0345 97.262497 56.614502
21.4245 97.730675 56.54417
21.6224 97.695908 56.657402
21.85857 97.622276 56.621494
22.125874 97.549072 56.642128
22.309 97.521004 56.745998
20.967499 97.928497 56.624001
21.0947 97.849594 56.638397
21.328833 97.791412 56.657665
20.903 98.151505 56.621254
20.811501 98.363495 56.609253
20.719667 98.667999 56.647335
20.754 98.625 56.742001
20.625 98.886398 56.626396
20.540251 99.130005 56.598751
20.449499 99.391739 56.620251
20.362333 99.601341 56.589001
20.2425 99.946503 56.602501
20.308001 99.806671 56.658001
20.166666 100.165 56.638336
20.0755 100.39025 56.60075
19.9585 100.712 56.588501
20.004 100.581 56.629002
19.899332 100.90034 56.632999
19.803999 101.0825 56.583332
19.693499 101.39075 56.571251
19.777 101.252 56.702
22.437 97.481003 56.757
22.614716 97.446068 56.855568
22.841812 97.38887 56.884125
23.105145 97.304283 56.88657
21.677998 97.726868 56.851997
21.864801 97.674408 56.850903
22.143999 97.59864 56.878216
22.394751 97.528488 56.907623
22.514 97.510002 56.985001
20.981001 97.999001 56.804001
21.153917 97.884743 56.876583
21.388 97.821754 56.884876
21.5375 97.774506 56.8745
20.962 98.155334 56.906002
20.882601 98.350601 56.878197
20.787251 98.618248 56.886497
20.698999 98.863747 56.8895
20.604748 99.107002 56.885998
20.471334 99.451332 56.840668
20.534 99.292328 56.871334
20.41925 99.594246 56.874752
20.313601 99.891396 56.856396
20.212 100.187 56.875996
20.2565 100.03 56.929501
20.144001 100.35825 56.8675
20.042336 100.60751 56.866333
19.9576 100.8698 56.887596
19.855251 101.1105 56.841751
19.7355 101.4235 56.817497
19.788 101.318 56.877998
19.687 101.568 56.9095
22.649 97.476997 57.078999
22.869213 97.437294 57.139072
23.113417 97.356918 57.124664
21.743 97.747002 57.009003
21.9086 97.716103 57.108101
22.1308 97.644806 57.0812
22.371584 97.591835 57.135746
22.589333 97.528168 57.155666
21.158833 97.946747 57.114746
21.3866 97.878601 57.110401
21.609249 97.808434 57.114315
21.799999 97.777 57.2215
20.954 98.241997 57.055
21.023333 98.111 57.146667
20.907999 98.414604 57.141796
20.8235 98.625 57.088501
20.71125 98.932999 57.116497
20.783501 98.786499 57.157997
20.628668 99.176666 57.118668
20.554501 99.400993 57.139999
20.435001 99.679001 57.063
20.504 99.515999 57.160999
20.378799 99.871399 57.134205
20.301001 100.08 57.136497
20.193401 100.373 57.124805
20.102667 100.61633 57.160664
19.992001 100.911 57.169502
20.041 100.7905 57.1675
19.9006 101.09959 57.081596
19.80175 101.40025 57.093502
19.686001 101.571 57.055
19.758999 101.557 57.1745
22.885 97.480247 57.344749
23.144928 97.403282 57.36607
23.271 97.393997 57.477001
22.133373 97.711945 57.368252
22.377642 97.639442 57.365429
22.630215 97.554649 57.343426
22.839001 97.511497 57.406998
21.184 97.989998 57.337002
21.355612 97.943275 57.362164
21.597401 97.878502 57.405903
21.858749 97.799416 57.390087
21.0853 98.102798 57.381001
20.962332 98.407005 57.358997
21.030001 98.252998 57.414001
20.878399 98.6166 57.354603
20.783998 98.901001 57.366333
20.688002 99.124329 57.341335
20.76 99.002998 57.431
20.618 99.364746 57.373001
20.4755 99.712997 57.308998
20.532333 99.543663 57.373669
20.4335 99.867996 57.406502
20.327501 100.108 57.358166
20.2225 100.42325 57.379002
20.298 100.259 57.481998
20.13575 100.6295 57.37075
20.0555 100.877 57.40675
19.939667 101.139 57.330334
20.014999 101.037 57.477001
19.8654 101.37 57.360199
19.784 101.56899 57.396
23.150785 97.462929 57.615788
22.188251 97.741745 57.594749
22.392359 97.693779 57.631214
22.629053 97.613007 57.593277
22.863668 97.554665 57.633587
23.03525 97.516251 57.681496
21.445 97.976662 57.608002
21.6257 97.919701 57.618095
21.867401 97.84729 57.600403
22.06325 97.791 57.634003
21.130701 98.130196 57.636101
21.319 98.023399 57.646004
20.9925 98.447502 57.591999
21.0445 98.328003 57.597
20.92675 98.620003 57.60675
20.843601 98.883804 57.628197
20.723499 99.1875 57.593498
20.766998 99.038498 57.592003
20.6514 99.397797 57.628601
20.55925 99.625252 57.610748
20.467001 99.917664 57.638996
20.504999 99.875999 57.730999
20.377501 100.1385 57.64325
20.2875 100.40651 57.658253
20.196667 100.59299 57.593998
20.094501 100.90575 57.645
19.967499 101.175 57.588501
20.023998 101.0925 57.648003
19.91975 101.38225 57.627998
19.84725 101.5675 57.665001
23.223 97.487999 57.813999
23.310669 97.471001 57.865337
22.39875 97.735245 57.80875
22.600376 97.685753 57.881001
22.86956 97.611557 57.877499
23.131701 97.531502 57.896496
21.674929 97.96064 57.854786
21.876833 97.901161 57.84
22.142166 97.823112 57.859112
22.363501 97.771507 57.913334
21.188999 98.14241 57.884899
21.374084 98.055824 57.879333
21.5795 98.013504 57.942501
21.081001 98.359505 57.848499
20.953001 98.70533 57.849667
21.011667 98.550331 57.886333
20.90925 98.8815 57.932247
20.806252 99.078506 57.845749
20.716999 99.347 57.855
20.622501 99.585999 57.887249
20.5315 99.843002 57.858749
20.436001 100.07925 57.85775
20.35125 100.36575 57.912003
20.229998 100.646 57.874668
20.276501 100.553 57.883999
20.163799 100.85 57.876801
20.062252 101.11225 57.882252
19.9685 101.37075 57.88475
23.363001 97.491997 58.007999
22.633875 97.720879 58.067875
22.855249 97.668755 58.112747
23.121 97.592155 58.126713
23.309376 97.535118 58.122498
21.888334 97.960999 58.114834
22.092001 97.901001 58.14267
22.372299 97.822556 58.131355
22.565001 97.778999 58.164001
21.243999 98.128998 58.041
21.381392 98.117661 58.132717
21.5998 98.050003 58.1203
21.756001 98.019997 58.192001
21.129398 98.374405 58.101398
21.047667 98.611328 58.164669
20.967751 98.835251 58.1535
20.856199 99.09539 58.104797
20.705 99.475998 58.051998
20.774 99.332664 58.096333
20.665251 99.629494 58.13625
20.5734 99.888405 58.130199
20.467499 100.15199 58.11525
20.532 100.032 58.199001
20.389999 100.39375 58.14325
20.302834 100.62167 58.157501
20.182665 100.93 58.132336
20.254 100.781 58.234001
20.109333 101.12283 58.140503
20.022667 101.35367 58.120998
19.935249 101.5805 58.146751
22.875666 97.713081 58.333328
23.116358 97.643433 58.369572
23.320251 97.593628 58.413872
21.928001 97.992004 58.311501
22.148336 97.942253 58.373413
22.379002 97.880104 58.403603
22.634998 97.798744 58.380432
22.853001 97.752998 58.467999
21.360586 98.182411 58.381668
21.622 98.09317 58.355419
21.841166 98.034508 58.371334
21.15925 98.430008 58.359753
21.096666 98.605995 58.367329
20.962999 98.966003 58.353001
21.0305 98.828751 58.412998
20.903999 99.126793 58.388599
20.796749 99.392494 58.318253
20.703751 99.650009 58.37125
20.787001 99.531998 58.498001
20.619333 99.890663 58.363998
20.490999 100.1845 58.3475
20.562 100.07266 58.414001
20.430666 100.374 58.331333
20.347 100.62479 58.3862
20.214001 100.965 58.346001
20.268 100.86 58.424
20.1558 101.13359 58.382
20.04475 101.41475 58.348499
22.968 97.743248 58.588249
23.117199 97.714798 58.6576
23.303249 97.640244 58.605247
22.160751 97.983749 58.574501
22.348917 97.941673 58.613163
22.630644 97.862999 58.644497
22.867624 97.802376 58.6745
21.401499 98.215492 58.578335
21.647787 98.146431 58.602146
21.868713 98.08622 58.609283
22.0793 98.027504 58.652397
21.221251 98.391998 58.612747
21.339001 98.261002 58.663498
21.132751 98.634995 58.620502
21.044498 98.90625 58.647751
20.953999 99.125999 58.640751
20.86025 99.367752 58.579002
20.7435 99.684998 58.599998
20.798 99.591995 58.676498
20.6775 99.882744 58.625248
20.499001 100.232 58.519001
20.588751 100.15575 58.654499
20.462 100.4255 58.574501
20.517 100.322 58.664001
20.396999 100.624 58.629253
20.300999 100.871 58.627499
20.206999 101.1415 58.630501
20.1075 101.3735 58.602749
20.0355 101.564 58.570999
23.1595 97.727493 58.802498
23.359436 97.698685 58.887184
22.416124 97.973244 58.829376
22.5975 97.920502 58.840801
22.873074 97.837936 58.856426
23.109999 97.779121 58.898125
21.441999 98.248001 58.757
21.644714 98.211998 58.855793
21.896835 98.143745 58.885498
22.107876 98.083504 58.904747
22.3346 98.018501 58.908001
21.350124 98.325813 58.88044
21.553001 98.263 58.974998
21.190599 98.633995 58.874596
21.110001 98.874748 58.913002
20.966499 99.194504 58.820499
21.027 99.098999 58.895
20.89975 99.403252 58.837749
20.747999 99.712997 58.756001
20.8232 99.652397 58.917603
20.721001 99.9245 58.892502
20.6306 100.1272 58.860603
20.545 100.35433 58.868999
20.4636 100.58299 58.876801
20.36175 100.82975 58.849751
20.243999 101.136 58.826
20.285002 101.09333 58.926331
20.16975 101.33875 58.842751
20.070799 101.60701 58.857399
22.660501 97.963379 59.110687
22.884857 97.899002 59.119427
23.155813 97.81588 59.121254
23.378998 97.761505 59.178497
21.8727 98.202003 59.101601
22.11907 98.135208 59.140003
22.359571 98.057793 59.118141
22.5725 98.020996 59.2355
21.397499 98.355904 59.147205
21.601299 98.294907 59.128002
21.762001 98.251999 59.168499
21.220001 98.691002 59.112995
21.284 98.529495 59.108002
21.169001 98.878662 59.190002
21.054499 99.126671 59.1245
20.947668 99.417999 59.092331
20.895668 99.615669 59.167332
20.732 99.987 59.069
20.791666 99.818336 59.10033
20.702667 100.085 59.123333
20.600599 100.3388 59.104401
20.476 100.686 59.095497
20.528999 100.5955 59.2005
20.401749 100.85275 59.098251
20.3125 101.12775 59.1315
20.187334 101.37866 59.052998
20.268999 101.28 59.195999
20.112499 101.6075 59.098751
22.746 97.992996 59.346001
22.9025 97.956627 59.40625
23.087667 97.898163 59.383755
23.349501 97.818916 59.382
21.932499 98.235504 59.329002
22.136583 98.180412 59.346668
22.386499 98.117073 59.394413
22.626799 98.043297 59.407501
21.413599 98.407799 59.3596
21.648666 98.339081 59.385586
21.848999 98.280914 59.401669
21.249001 98.723999 59.292
21.2906 98.646004 59.411598
21.1875 98.923996 59.358498
21.113375 99.122627 59.387627
20.98 99.466003 59.318001
21.053501 99.296997 59.418999
20.928875 99.608002 59.352871
20.831999 99.877747 59.393501
20.715334 100.159 59.325665
20.754 100.109 59.431
20.629501 100.388 59.360748
20.546 100.622 59.347332
20.445 100.893 59.359001
20.521999 100.763 59.484001
20.35075 101.15125 59.36425
20.2225 101.4495 59.327499
20.279499 101.341 59.375504
20.143124 101.63438 59.342751
22.959999 97.987999 59.577999
23.115166 97.950256 59.6395
23.383614 97.863113 59.615723
23.549166 97.820335 59.626171
22.146999 98.223999 59.565002
22.341356 98.180855 59.609997
22.6161 98.100395 59.6269
22.834166 98.034668 59.624668
21.442331 98.45517 59.639496
21.635332 98.398949 59.636002
21.897625 98.328003 59.659248
22.0741 98.275406 59.669403
21.341999 98.651001 59.623253
21.225 98.958992 59.616333
21.264 98.806999 59.625
21.161751 99.149002 59.645
21.0714 99.360397 59.631001
20.9615 99.651001 59.60025
21.003 99.591003 59.678001
20.886501 99.8815 59.649498
20.789 100.11625 59.594749
20.693251 100.364 59.605
20.603001 100.61075 59.5895
20.476501 100.884 59.586502
20.535 100.8365 59.673
20.411751 101.10825 59.585999
20.31675 101.34825 59.617752
20.2134 101.63139 59.609001
23.197876 97.970505 59.846001
23.376699 97.927696 59.885399
23.550333 97.88633 59.915668
22.438299 98.2024 59.843498
22.629213 98.158997 59.888927
22.871918 98.074501 59.852161
23.063334 98.019661 59.886669
21.485001 98.496002 59.852001
21.607124 98.47113 59.905502
21.855856 98.389786 59.883568
22.152084 98.302338 59.892666
22.335751 98.260254 59.927498
21.418751 98.603752 59.908752
21.313801 98.8414 59.863598
21.223499 99.115005 59.901253
21.136332 99.335663 59.888
21.039499 99.583252 59.860752
20.948 99.848251 59.908501
20.848801 100.1036 59.878796
20.728998 100.37067 59.861664
20.785999 100.28101 59.865997
20.66725 100.595 59.865997
20.493999 100.98 59.785
20.571499 100.83375 59.867996
20.435667 101.174 59.818005
20.504 101.035 59.915001
20.359501 101.39349 59.862751
20.290001 101.6155 59.911999
23.246 97.989998 60.008999
23.410126 97.970505 60.129501
23.556166 97.918175 60.09383
22.634501 98.213142 60.131859
22.881111 98.131721 60.118942
23.111401 98.061996 60.113403
23.276335 98.022667 60.183666
21.697001 98.480003 60.063
21.853334 98.442253 60.097248
22.139666 98.362671 60.117832
22.377501 98.295006 60.146664
22.577999 98.251999 60.216999
21.449625 98.632004 60.109627
21.619801 98.526001 60.139801
21.349998 98.884254 60.142998
21.216 99.240997 60.073002
21.276335 99.110664 60.154999
21.165501 99.362251 60.106998
21.070799 99.644997 60.115002
20.967667 99.895668 60.12767
20.894751 100.12325 60.146252
20.785666 100.413 60.118668
20.689667 100.65701 60.098667
20.76 100.539 60.249001
20.61175 100.858 60.098503
20.469999 101.23 60.093002
20.534666 101.08266 60.14333
20.39525 101.40475 60.089249
23.459 97.991997 60.292999
23.579332 97.977165 60.353832
22.880199 98.198395 60.3843
23.112581 98.125496 60.379086
23.343601 98.054398 60.385498
23.541 98.018997 60.492001
21.87175 98.481621 60.291126
22.128643 98.416786 60.34507
22.353415 98.359093 60.389084
22.6035 98.283752 60.385128
22.758499 98.25 60.443001
21.453499 98.7015 60.316002
21.621141 98.572998 60.352715
21.853874 98.528748 60.458748
21.401335 98.902 60.384335
21.304667 99.13932 60.332996
21.209751 99.406006 60.374001
21.285 99.276001 60.477001
21.120001 99.649002 60.345749
20.989 99.901001 60.318001
21.032667 99.879333 60.38567
20.936251 100.1535 60.38625
20.83675 100.37799 60.326752
20.721001 100.707 60.324001
20.774 100.612 60.439003
20.662169 100.87866 60.3755
20.560249 101.16376 60.386749
20.458202 101.4126 60.362793
23.676001 97.982002 60.505001
22.941999 98.233002 60.607002
23.120214 98.179283 60.619072
23.418581 98.090004 60.632999
23.599699 98.033401 60.633598
22.147499 98.46875 60.589622
22.362284 98.406784 60.600857
22.620834 98.341743 60.640747
22.824001 98.264122 60.614124
21.6357 98.64151 60.641804
21.879499 98.564697 60.6605
22.083666 98.514671 60.696335
21.449499 98.857498 60.590248
21.358402 99.151001 60.610401
21.247 99.405998 60.557999
21.281334 99.36834 60.660999
21.179001 99.624001 60.600502
21.091749 99.864746 60.607002
20.9795 100.1895 60.6455
21.022999 100.078 60.667
20.8951 100.39349 60.626698
20.810501 100.617 60.6385
20.7185 100.877 60.612751
20.615334 101.148 60.647999
20.528252 101.3625 60.599247
20.406 101.66633 60.630337
23.148336 98.21891 60.823414
23.374418 98.163246 60.886753
23.617601 98.0886 60.898701
22.389502 98.458252 60.842834
22.649611 98.390717 60.893223
22.890858 98.30957 60.861431
23.050999 98.278503 60.922501
21.627832 98.697334 60.885502
21.875784 98.618217 60.882286
22.136402 98.5476 60.907204
22.346001 98.502998 60.984001
21.492001 98.904495 60.822502
21.521999 98.879501 60.948997
21.42725 99.099998 60.851997
21.311001 99.407005 60.87075
21.222 99.667999 60.878502
21.275999 99.556 60.937
21.128668 99.888496 60.839169
21.040501 100.174 60.917999
20.954599 100.3694 60.8778
20.849751 100.64125 60.859749
20.707001 100.998 60.775002
20.774 100.87234 60.884003
20.686501 101.07726 60.879749
20.59325 101.3475 60.884998
20.474001 101.67 60.886002
20.521999 101.52 60.845501
20.427 101.76151 60.875999
23.395166 98.213341 61.124416
23.640585 98.139168 61.113087
22.448 98.492004 61.0835
22.6173 98.455704 61.125195
22.858376 98.388687 61.156193
23.107214 98.301567 61.115356
23.2775 98.253502 61.1735
21.703333 98.723999 61.102665
21.875599 98.663597 61.081097
22.143501 98.591087 61.109005
22.4025 98.529495 61.175251
21.562874 98.86763 61.113125
21.451666 99.166344 61.092335
21.517 99.037003 61.241001
21.370501 99.365501 61.084251
21.233 99.727997 61.061001
21.301668 99.58567 61.147663
21.193201 99.873398 61.123604
21.1015 100.1155 61.115498
20.962 100.482 61.075001
21.031 100.35333 61.177998
20.9095 100.64917 61.145832
20.8195 100.86124 61.092499
20.6985 101.1465 61.066002
20.781 101.04 61.202
20.644199 101.356 61.151203
20.455 101.7445 61.019501
20.5445 101.5535 61.08025
20.490501 101.765 61.185001
23.431999 98.237 61.294998
23.649666 98.186165 61.325085
23.789 98.188004 61.477001
22.659 98.494995 61.337997
22.857084 98.445915 61.392502
23.137571 98.357071 61.386711
23.366625 98.29213 61.383747
23.51 98.254997 61.415001
21.895914 98.719917 61.36842
22.106125 98.661865 61.366249
22.354214 98.589287 61.374718
22.595499 98.527496 61.394669
21.653 98.836067 61.349216
21.487 99.2285 61.382999
21.534 99.119003 61.389
21.418665 99.367332 61.296329
21.332748 99.649124 61.393501
21.212 99.981003 61.386002
21.255001 99.844498 61.3745
21.140251 100.1275 61.3465
21.059668 100.39267 61.393002
20.960333 100.61066 61.365665
21.039 100.513 61.473999
20.8778 100.8694 61.373596
20.7425 101.196 61.332001
20.786999 101.08099 61.372498
20.683666 101.39133 61.414001
20.5924 101.6106 61.372997
20.49 101.774 61.339001
23.650999 98.228996 61.513
23.758251 98.21875 61.603249
22.910334 98.475334 61.600498
23.147751 98.410004 61.63488
23.408602 98.326897 61.624702
23.617834 98.27417 61.659748
22.162785 98.704506 61.619141
22.3825 98.641495 61.618999
22.624355 98.572853 61.614643
22.844 98.519997 61.681
21.681833 98.869667 61.605667
21.858429 98.807426 61.653717
22.028 98.769997 61.713001
21.56525 99.105255 61.570751
21.4545 99.429504 61.569
21.504 99.316498 61.628998
21.3957 99.605904 61.635704
21.2995 99.880493 61.628502
21.208401 100.09499 61.615795
21.113251 100.37624 61.634251
20.985001 100.618 61.542999
21.032333 100.608 61.662334
20.919668 100.892 61.616669
20.827999 101.10725 61.597252
20.711 101.411 61.625
20.756001 101.27299 61.574001
20.639999 101.61125 61.628498
20.568501 101.784 61.588501
23.124502 98.472504 61.847828
23.364437 98.404251 61.886063
23.645332 98.325081 61.905334
23.821751 98.264 61.865501
22.239 98.739998 61.842999
22.3965 98.701164 61.883244
22.609833 98.638092 61.869335
22.857668 98.55175 61.835583
23.056 98.507004 61.911999
21.716749 98.910507 61.910248
21.874599 98.857704 61.876301
22.125082 98.795998 61.919662
21.617199 99.118004 61.835602
21.537001 99.372009 61.883667
21.448 99.586502 61.871002
21.366333 99.870338 61.920502
21.2215 100.198 61.889999
21.276751 100.053 61.88625
21.172667 100.367 61.882
21.084251 100.58525 61.9025
20.963001 100.884 61.815498
21.015999 100.7795 61.886002
20.877333 101.11666 61.860001
20.719999 101.461 61.754002
20.791666 101.348 61.868668
20.68 101.63826 61.871002
20.605 101.8005 61.837997
23.357563 98.463432 62.125813
23.643572 98.378494 62.138287
22.454 98.732002 62.094002
22.625858 98.697647 62.146572
22.857185 98.611816 62.113564
23.119331 98.543442 62.141216
21.741001 98.945999 62.077999
21.883249 98.915657 62.131832
22.134201 98.831497 62.107201
22.357098 98.779404 62.163502
21.67025 99.109505 62.118248
21.580999 99.365501 62.091751
21.47575 99.637497 62.092499
21.545 99.533997 62.202999
21.400249 99.876495 62.129501
21.30925 100.1275 62.146748
21.204 100.39899 62.095661
21.12525 100.62625 62.151501
20.975 100.95 62.001999
21.047998 100.826 62.157333
20.9466 101.0958 62.147205
20.824667 101.40733 62.105999
20.714001 101.633 62.049
20.778 101.584 62.164497
20.643 101.8205 62.0905
23.479 98.479004 62.366501
23.612101 98.441605 62.3573
23.826998 98.388336 62.389332
22.702499 98.730003 62.388996
22.881901 98.680496 62.4221
23.1262 98.595802 62.372803
23.358099 98.535904 62.419201
21.8792 98.965004 62.330299
22.119917 98.899086 62.347504
22.352417 98.826088 62.354084
22.571333 98.779839 62.410336
21.718666 99.127663 62.381668
21.791 99.021004 62.417999
21.638599 99.375595 62.363598
21.542 99.640327 62.386997
21.445669 99.884003 62.339664
21.36375 100.0945 62.379997
21.237499 100.446 62.367001
21.2775 100.335 62.334499
21.164501 100.65375 62.392246
21.075251 100.90549 62.400249
20.953499 101.20399 62.365997
21.000999 101.092 62.384998
20.885668 101.36066 62.327332
20.734501 101.742 62.260498
20.814749 101.60075 62.393501
20.7125 101.8345 62.411499
23.649 98.472328 62.563335
23.849998 98.434402 62.629997
22.916666 98.712502 62.619999
23.12557 98.664429 62.637642
23.363251 98.576836 62.628754
23.610666 98.517006 62.674332
21.980251 98.993256 62.562
22.140251 98.947746 62.581913
22.363333 98.881996 62.605503
22.629751 98.810249 62.605999
22.80125 98.775253 62.69875
21.743999 99.147003 62.592999
21.845562 99.059303 62.639496
22.036999 99.019501 62.7355
21.689499 99.384506 62.626751
21.592501 99.605499 62.6035
21.477001 99.929504 62.5835
21.527 99.810501 62.587502
21.415499 100.13451 62.655998
21.317001 100.362 62.609001
21.205999 100.6865 62.622002
21.255501 100.5435 62.626503
21.132999 100.905 62.656666
20.961 101.245 62.541
21.04175 101.11874 62.617748
20.935667 101.37433 62.610668
20.835999 101.64639 62.606201
20.719 101.877 62.587002
20.775 101.771 62.629002
23.879251 98.474503 62.834251
22.959 98.745003 62.813999
23.151875 98.712502 62.888248
23.389498 98.619415 62.83392
23.626215 98.558784 62.870075
23.800499 98.530502 62.964752
22.243999 98.955505 62.751999
22.395998 98.938431 62.866997
22.614901 98.867798 62.845398
22.841917 98.800079 62.867249
23.039 98.754997 62.918999
21.889601 99.105202 62.904594
22.094999 99.031746 62.869377
22.2535 99.009003 62.979
21.7335 99.425499 62.9035
21.771999 99.287003 62.875
21.6436 99.619797 62.841797
21.562002 99.868996 62.879669
21.455502 100.1334 62.862904
21.344 100.44233 62.858002
21.215 100.739 62.849998
21.291334 100.62366 62.89967
21.172001 100.883 62.816498
21.094601 101.13039 62.887798
20.970335 101.42767 62.846333
21.032 101.263 62.884998
20.89325 101.65549 62.882
20.80475 101.83925 62.890499
23.990999 98.498001 63.042999
23.247999 98.724998 63.049999
23.375429 98.692284 63.112
23.642166 98.622002 63.154499
23.863333 98.547173 63.124832
22.427999 98.973335 63.073334
22.612928 98.928642 63.110928
22.856833 98.847412 63.095413
23.094498 98.782127 63.10675
21.892702 99.162895 63.128197
22.10425 99.085411 63.115417
22.330624 99.031754 63.187
21.743999 99.484001 63.09
21.786999 99.363495 63.072998
21.672749 99.666748 63.092999
21.754 99.536003 63.219002
21.609499 99.875 63.151001
21.466999 100.243 63.118
21.528999 100.07601 63.109665
21.426001 100.37425 63.154999
21.334499 100.6275 63.12825
21.2125 100.91325 63.095249
21.299 100.77 63.209
21.136 101.17167 63.157333
21.047501 101.3445 63.107498
20.953999 101.60651 63.098499
21.009001 101.511 63.198002
20.8825 101.791 63.12775
23.403 98.723495 63.309502
23.636301 98.679901 63.395699
23.873501 98.5942 63.340199
24.005001 98.572998 63.434502
22.675917 98.973083 63.382504
22.903748 98.902832 63.379501
23.111284 98.834846 63.361
23.331902 98.772804 63.403603
21.924 99.187248 63.359253
22.1401 99.141197 63.394203
22.373201 99.065796 63.382301
22.524498 99.022247 63.407501
21.83025 99.406242 63.347248
21.7185 99.722 63.371498
21.7675 99.605499 63.412003
21.640669 99.917336 63.401669
21.554249 100.14575 63.348503
21.462002 100.3855 63.404499
21.370251 100.64876 63.379501
21.286333 100.84634 63.358669
21.192667 101.11399 63.343998
21.264999 101.006 63.464001
21.088249 101.37625 63.370247
20.9715 101.7005 63.355
21.021 101.5765 63.389999
20.8925 101.85175 63.365002
23.6569 98.716599 63.601398
23.902084 98.653908 63.633667
24.047834 98.605164 63.668667
22.874357 98.963928 63.609715
23.126999 98.900085 63.645416
23.352777 98.818451 63.623886
23.533001 98.764999 63.674999
21.931 99.227005 63.533001
22.141714 99.193138 63.614498
22.39875 99.112122 63.626877
22.624302 99.041893 63.6273
22.755501 99.027 63.724499
21.893167 99.379494 63.629166
21.802 99.613503 63.618752
21.708748 99.855499 63.607002
21.619749 100.11275 63.629501
21.532667 100.34467 63.612667
21.439751 100.63075 63.667
21.3405 100.83775 63.616749
21.2225 101.16 63.583
21.2745 101.058 63.642502
21.135799 101.361 63.586395
21.054667 101.63733 63.653667
20.957001 101.82675 63.618
23.747 98.731003 63.784
23.8962 98.711594 63.880501
24.041 98.665001 63.903999
22.929001 98.988998 63.834
23.149286 98.936356 63.885433
23.3699 98.870407 63.882099
23.605402 98.791801 63.855602
23.750999 98.751999 63.895
22.145 99.221497 63.779999
22.357357 99.180069 63.856285
22.5991 99.096802 63.850903
22.837799 99.036797 63.900002
23.007999 99.008003 63.966
21.954399 99.316406 63.867798
22.081299 99.271103 63.891998
21.862751 99.578003 63.852997
21.717499 99.904495 63.787003
21.784668 99.820335 63.922001
21.661251 100.14674 63.891251
21.55975 100.36575 63.837002
21.48 100.644 63.916
21.52 100.525 63.889
21.389198 100.8548 63.8778
21.23 101.209 63.764
21.307667 101.10067 63.916668
21.195398 101.3764 63.879005
21.118334 101.60733 63.905666
21.039999 101.81632 63.915668
24.0748 98.707199 64.122398
23.183001 98.990501 64.151001
23.38275 98.92131 64.118378
23.6164 98.849304 64.110207
23.842445 98.785553 64.138947
22.377699 99.215202 64.042397
22.635 99.144997 64.10067
22.881199 99.078506 64.134804
23.082499 99.017334 64.147331
21.975332 99.401337 64.140999
22.124666 99.311005 64.137665
22.299749 99.273743 64.184502
21.905499 99.620499 64.125748
21.813334 99.857002 64.114006
21.705332 100.13934 64.112671
21.774 100.016 64.202003
21.618999 100.37781 64.134399
21.490999 100.707 64.105003
21.531 100.5835 64.073502
21.417248 100.90525 64.137253
21.5 100.755 64.236
21.339333 101.13434 64.13633
21.226 101.36 64.0625
21.288502 101.3255 64.199501
21.1395 101.6595 64.145248
24.111 98.740997 64.348
23.4002 98.954399 64.316605
23.625214 98.91185 64.399429
23.869301 98.838303 64.409401
24.08 98.772163 64.394165
22.644585 99.197998 64.332748
22.8897 99.125694 64.342896
23.124874 99.056625 64.368248
23.334 99.016495 64.426003
22.136375 99.373375 64.383621
22.405334 99.287994 64.384918
22.548 99.261002 64.497002
21.943501 99.641998 64.388496
21.8445 99.883125 64.37262
21.738501 100.1925 64.371506
21.7855 100.077 64.390999
21.668999 100.37425 64.39325
21.572498 100.62051 64.350502
21.456001 100.929 64.414505
21.509499 100.8045 64.415001
21.394249 101.12701 64.397247
21.241501 101.4445 64.267502
21.305 101.35734 64.406334
21.206001 101.6225 64.386505
21.10825 101.872 64.391251
23.437 98.998001 64.536003
23.616699 98.960899 64.604202
23.873699 98.894699 64.642303
24.122833 98.807335 64.620506
22.654999 99.240997 64.504501
22.859571 99.199501 64.596642
23.134499 99.110329 64.604828
23.373833 99.040993 64.614998
23.547501 99.016998 64.729996
22.1243 99.433792 64.619598
22.378717 99.362289 64.646858
22.619101 99.288292 64.684799
21.983501 99.676003 64.656998
22.027 99.549004 64.640999
21.914999 99.85025 64.623497
21.819666 100.12933 64.646667
21.682999 100.4495 64.592003
21.755501 100.2845 64.630997
21.613499 100.65175 64.617752
21.466 100.984 64.598999
21.5495 100.8515 64.6465
21.431 101.162 64.639
21.338333 101.39633 64.647835
21.2145 101.6705 64.517502
21.252001 101.675 64.668999
21.145248 101.8855 64.62075
23.876572 98.942505 64.854073
24.106501 98.876076 64.870667
22.90975 99.224365 64.789627
23.112215 99.179504 64.871147
23.378357 99.094711 64.857925
23.6294 99.028397 64.903702
22.127665 99.477333 64.842339
22.350748 99.4235 64.883667
22.631166 99.345337 64.916176
22.827374 99.272873 64.877495
22.056999 99.586998 64.864998
21.929167 99.925499 64.852997
22.0065 99.791 64.929504
21.862499 100.104 64.823502
21.719 100.4525 64.810997
21.792625 100.34038 64.909004
21.666666 100.67867 64.877663
21.5721 100.89861 64.866989
21.475332 101.15133 64.831329
21.404669 101.37766 64.903664
21.2978 101.6384 64.884598
23.940001 98.968002 65.022003
24.121428 98.931221 65.116219
23.171501 99.21225 65.063499
23.361626 99.169189 65.144562
23.633625 99.086746 65.129875
23.875 99.012489 65.124825
22.231001 99.494003 65.071999
22.389 99.464493 65.111374
22.625784 99.396996 65.147362
22.890873 99.319008 65.144875
23.091833 99.267494 65.200005
22.137001 99.579498 65.113831
21.973999 99.976501 65.157501
22.0445 99.810501 65.152
21.90575 100.155 65.112747
21.81575 100.4175 65.164749
21.717499 100.633 65.112
21.641798 100.8764 65.152405
21.522001 101.14367 65.098
21.442249 101.388 65.116753
21.346001 101.64425 65.154251
21.278 101.82201 65.115501
24.1905 98.9655 65.345001
24.2745 98.945 65.360001
23.385401 99.220703 65.365891
23.622501 99.141701 65.3563
23.881712 99.072647 65.37822
24.092169 99.016838 65.417168
22.451 99.497002 65.287003
22.6336 99.445702 65.366501
22.864584 99.390419 65.407082
23.141417 99.304665 65.416664
23.347 99.255997 65.480003
22.181168 99.624001 65.370506
22.382002 99.530334 65.369667
22.525 99.509003 65.455002
22.05925 99.888504 65.35125
21.967751 100.12476 65.401749
21.884001 100.34299 65.357002
21.782749 100.60775 65.375999
21.693001 100.88576 65.417503
21.595001 101.0965 65.355255
21.4855 101.45399 65.43
21.526501 101.302 65.355499
21.421999 101.58067 65.358002
21.2355 101.9945 65.332504
21.31875 101.86525 65.389748
24.264 98.982498 65.526505
23.612301 99.207603 65.620605
23.855856 99.129639 65.60157
24.116751 99.053589 65.623917
24.302999 99.003998 65.655998
22.6255 99.485001 65.550995
22.863251 99.447418 65.641243
23.116901 99.361595 65.6334
23.358313 99.294052 65.636375
22.200333 99.614662 65.554329
22.374084 99.587166 65.606583
22.625624 99.525375 65.653503
22.122499 99.862495 65.648254
22.036667 100.066 65.596672
21.926001 100.3726 65.611198
21.822334 100.63467 65.598335
21.73 100.887 65.609001
21.785 100.797 65.685997
21.643801 101.108 65.628197
21.564667 101.36666 65.643669
21.432669 101.64066 65.566338
21.500999 101.54 65.639
21.375999 101.86832 65.663994
21.3125 102.0115 65.639999
23.659248 99.238503 65.834
23.842688 99.199623 65.885254
24.148214 99.096642 65.855362
24.290667 99.059669 65.884666
22.924334 99.479668 65.858002
23.127201 99.418289 65.892807
23.378143 99.339859 65.885216
23.563499 99.280502 65.856995
22.191 99.699997 65.761002
22.374435 99.640495 65.863304
22.640581 99.562744 65.854752
22.8255 99.514 65.878754
22.162001 99.891006 65.900253
22.06675 100.1055 65.844498
21.966333 100.413 65.886002
22.028999 100.261 65.898003
21.875799 100.6214 65.843201
21.743 100.953 65.753998
21.780334 100.901 65.87867
21.683664 101.15434 65.902992
21.601002 101.39 65.897804
21.466999 101.6905 65.850502
21.511499 101.596 65.824501
21.405334 101.90033 65.86367
21.313 102.021 65.799004
23.952 99.223251 66.103004
24.1152 99.174904 66.139999
24.299751 99.119125 66.12262
23.143702 99.467094 66.1082
23.3645 99.409241 66.145248
23.627501 99.315666 66.087166
23.8384 99.276802 66.188599
22.361572 99.710136 66.121506
22.631418 99.613747 66.070999
22.874899 99.556 66.12059
23.027 99.525002 66.182999
22.2215 99.851997 66.115501
22.124599 100.1204 66.131607
22.028999 100.38132 66.108665
