# .PCD v0.7 - Point Cloud Data file format
VERSION 0.7
FIELDS x y z
SIZE 4 4 4
TYPE F F F
COUNT 1 1 1
WIDTH 65
HEIGHT 1
VIEWPOINT -18.2321 96.2205 -1.35163 -0.354149 -0.00701479 0.0211809 0.934923
POINTS 65
DATA ascii
49.157204 8.100111 1.130463
48.848236 8.2925577 1.1433333
49.472 7.6880002 1.303
49.547417 7.637125 1.3379583
49.171478 7.8924127 1.3560168
49.304165 7.8438559 1.3949891
48.749168 8.1539993 1.3403333
48.803917 8.1492081 1.3570833
49.157749 8.0586424 1.3672857
48.846169 8.3010006 1.402
49.400002 7.744 1.671
49.156452 7.8959541 1.6328708
49.306461 7.8443179 1.6358016
48.740417 8.213542 1.5975833
48.833408 8.1116428 1.6325952
49.034225 8.0055561 1.6440001
48.610775 8.3225451 1.656989
48.840687 8.3052006 1.62485
49.170792 7.9143338 1.8880833
49.313747 7.8606849 1.8362976
49.513 7.8000002 1.812
48.727192 8.2056675 1.8585278
48.830387 8.1327276 1.8932446
49.087833 8.0058603 1.8703055
49.298 8.0141668 1.9008332
48.833916 8.2939329 1.8702667
49.439999 7.7210002 2.027
49.215824 7.8835211 2.1384585
49.298424 7.8670301 2.0905833
48.741699 8.2231007 2.2009001
48.803993 8.1550579 2.117429
49.099125 8.0304174 2.1072221
49.317497 8.0176668 2.1113334
48.835804 8.3114681 2.1332002
49.230476 7.8655343 2.3939028
49.328903 7.8780918 2.3563416
48.736389 8.2263222 2.3908811
48.827522 8.144701 2.3910167
49.122391 8.0605698 2.4317639
49.308613 8.0165005 2.3441665
48.824894 8.3324919 2.3845668
49.234612 7.8642225 2.6007223
49.312866 7.9652004 2.652775
48.739147 8.2260637 2.6478333
48.815758 8.1670904 2.6321809
49.019749 8.0310278 2.6499445
49.293552 8.0296497 2.6361499
48.828503 8.3243895 2.5791667
49.166813 7.9152842 2.8296309
49.320301 7.8287191 2.860357
48.736191 8.2309246 2.9152374
48.858002 8.1281147 2.8329005
49.056335 8.0321112 2.9023056
49.282585 8.0240841 2.9496665
48.829117 8.3601122 2.9566667
49.226002 7.9074168 3.0971251
49.320801 7.9269333 3.1271331
49.654247 7.8252501 3.1949999
48.738636 8.2421293 3.1432502
48.820168 8.1838331 3.086
49.037174 8.0625887 3.1398556
49.304783 8.0355167 3.1732502
48.830372 8.3604898 3.1514347
48.869835 8.1727228 3.3208447
49.097534 8.0780659 3.3761334
