# .PCD v0.7 - Point Cloud Data file format
VERSION 0.7
FIELDS x y z
SIZE 4 4 4
TYPE F F F
COUNT 1 1 1
WIDTH 85
HEIGHT 1
VIEWPOINT -18.2321 96.2205 -1.35163 -0.354149 -0.00701479 0.0211809 0.934923
POINTS 85
DATA ascii
-40.73 -65.058502 11.2215
-40.778999 -64.992996 11.215
-39.028 -64.996002 11.199
-38.812 -64.637001 11.19
-39.646999 -64.281998 11.245
-39.82967 -64.125336 11.245999
-39.580002 -64.1185 11.2365
-39.301998 -64.022003 11.24
-39.232002 -64.064499 11.246
-40.051334 -63.830669 11.225001
-39.911999 -63.908001 11.241
-39.539497 -63.884499 11.231
-39.350334 -63.898331 11.23
-40.850002 -63.548664 11.213666
-40.6245 -63.553001 11.1985
-40.359001 -63.632336 11.192333
-40.146748 -63.638 11.2005
-39.750999 -63.542 11.226
-39.625996 -63.650665 11.230332
-39.378502 -63.695 11.23
-39.1371 -63.664299 11.2375
-41.262001 -63.472 11.243
-41.099335 -63.413666 11.240334
-40.957001 -63.436501 11.223
-40.668999 -63.475998 11.1995
-40.314247 -63.334 11.18325
-40.137001 -63.285 11.182
-39.878902 -63.360302 11.199999
-39.647999 -63.486 11.231
-39.4095 -63.417332 11.230499
-39.160999 -63.394333 11.236667
-38.974167 -63.387333 11.246
-41.056 -63.105003 11.231
-40.831749 -63.025749 11.218
-40.640499 -63.068001 11.19825
-40.41 -63.133877 11.185375
-40.075169 -63.100498 11.185333
-39.878998 -63.021 11.193
-39.636246 -63.143501 11.211124
-39.3675 -63.160248 11.233
-39.185997 -63.189499 11.23725
-40.843498 -62.871498 11.225
-40.322163 -62.806499 11.188499
-40.117001 -62.85667 11.188333
-39.881374 -62.841377 11.196751
-39.383667 -62.864666 11.214333
-39.145 -62.785 11.197
-38.896 -62.966999 11.212
-38.567001 -62.777 11.181
-40.756001 -62.694 11.212
-40.605167 -62.667332 11.211667
-40.444 -62.740997 11.1945
-40.105331 -62.590084 11.197415
-39.083 -62.582001 11.175
-38.819 -62.529747 11.196501
-38.633167 -62.637806 11.206361
-39.122601 -62.304005 11.1988
-38.925331 -62.428833 11.203
-40.621998 -65.057503 11.327499
-40.390003 -65.146828 11.333501
-39.153 -65.109001 11.355
-40.643501 -64.772247 11.335251
-40.408501 -64.955002 11.346001
-39.304001 -64.938004 11.343
-39.163666 -64.913002 11.336667
-40.585999 -64.686996 11.325
-39.524002 -64.640999 11.287
-39.400501 -64.6875 11.292
-39.221001 -64.650497 11.3015
-38.796501 -64.564499 11.326
-39.803001 -64.433998 11.257
-39.564331 -64.45034 11.262001
-39.277 -64.491997 11.276
-38.918446 -64.406227 11.303668
-39.119251 -64.178001 11.259501
-38.943001 -64.139999 11.268
-38.671501 -64.150253 11.306749
-39.011002 -63.849998 11.25
-38.87767 -63.833664 11.255333
-38.732246 -63.919502 11.276251
-38.82925 -63.579498 11.2565
-38.648087 -62.604 11.254833
-38.479 -62.682999 11.267
-39.023247 -62.335999 11.25075
-38.816002 -62.474251 11.2575
