# .PCD v0.7 - Point Cloud Data file format
VERSION 0.7
FIELDS x y z
SIZE 4 4 4
TYPE F F F
COUNT 1 1 1
WIDTH 72
HEIGHT 1
VIEWPOINT -18.2321 96.2205 -1.35163 -0.354149 -0.00701479 0.0211809 0.934923
POINTS 72
DATA ascii
26.806858 23.031696 4.878582
26.925406 22.983871 5.1230035
27.000999 22.982 5.1329999
26.805975 23.072359 5.1324906
27.177078 23.088364 5.1223636
26.941936 22.979813 5.3933125
27.446201 22.966202 5.3072
27.617374 22.866611 5.3539858
26.854399 23.038971 5.3609424
27.189112 23.125557 5.2943892
27.331814 23.059982 5.3271585
27.660603 23.034 5.3947001
26.948242 22.987047 5.6486373
27.452002 22.973 5.6936674
27.609037 22.866995 5.6587405
27.866501 22.80275 5.631
26.830986 23.065001 5.6211452
27.140167 23.093374 5.6903334
27.339899 23.06333 5.6700597
27.65485 23.042488 5.5992274
26.94025 22.997252 5.8527498
27.594769 22.895485 5.8902378
27.85 22.876999 5.9385004
26.857754 23.061323 5.8783026
27.013 23.025999 5.848
27.358057 23.072388 5.930944
27.658554 23.053276 5.8559399
27.462667 22.984001 6.0810003
27.610363 22.882627 6.1308279
27.866901 22.811399 6.0982003
26.835329 23.090614 6.106688
27.2127 23.148399 6.0667
27.377243 23.065016 6.1082268
27.616446 23.04714 6.0902638
27.475 22.980999 6.4829998
27.610598 22.886917 6.3941574
26.843933 23.094389 6.3514786
27.167036 23.145111 6.4593334
27.383663 23.110315 6.438693
27.616699 23.07995 6.3901315
27.355167 23.287834 6.4616666
27.466454 22.974827 6.5854807
27.636978 22.891516 6.6470642
27.84314 22.828371 6.6692505
26.847595 23.10351 6.6454453
27.191614 23.151377 6.5626044
27.351986 23.116913 6.6234713
27.590668 23.074184 6.691083
27.27911 23.268333 6.7465558
27.598358 22.917559 6.8792481
27.848957 22.857916 6.8560205
26.854452 23.107742 6.899229
27.202 23.193001 6.9980001
27.398842 23.143816 6.8551135
27.603209 23.086939 6.8645148
27.276041 23.269318 6.9014721
27.616545 22.92238 7.1102014
27.838839 22.857115 7.1010423
26.865902 23.109224 7.1188531
27.096001 23.154499 7.1234999
27.383478 23.152174 7.101912
27.597994 23.092407 7.113544
27.281998 23.277166 7.150125
27.634527 22.923666 7.3745399
27.846241 22.868307 7.3672557
26.85504 23.123974 7.3569517
27.079666 23.158667 7.3204999
27.376184 23.1579 7.3791232
27.580566 23.08975 7.3468723
27.269501 23.284813 7.4726253
27.836506 22.876072 7.5593886
26.856998 23.114452 7.6093049
