# .PCD v0.7 - Point Cloud Data file format
VERSION 0.7
FIELDS x y z
SIZE 4 4 4
TYPE F F F
COUNT 1 1 1
WIDTH 94
HEIGHT 1
VIEWPOINT -18.2321 96.2205 -1.35163 -0.354149 -0.00701479 0.0211809 0.934923
POINTS 94
DATA ascii
21.014301 81.876297 40.868298
20.684834 82.215836 40.85207
20.879442 82.103813 40.882832
20.462111 82.46978 40.84911
20.56135 82.360603 40.905918
20.760918 82.258926 40.850586
20.203999 82.646782 40.873608
20.387138 82.571831 40.849087
21.014666 81.865082 41.152332
20.462999 82.096748 41.126251
20.653439 82.180649 41.123833
20.860371 82.105904 41.120373
20.038 82.467003 41.124001
20.425751 82.434082 41.120167
20.52825 82.352753 41.090752
20.11025 82.611084 41.104458
20.321541 82.569534 41.099834
20.836599 81.991295 41.410297
21.012751 81.869751 41.410378
20.438833 82.153328 41.37825
20.618612 82.093773 41.379498
20.823875 82.07209 41.306667
19.9795 82.488998 41.386497
20.124582 82.475494 41.364334
20.368418 82.416168 41.347164
20.31225 82.511078 41.293835
21.013203 81.902206 41.6325
20.617542 82.187126 41.643833
20.837471 82.124184 41.64183
20.417999 82.483505 41.598251
20.5 82.393997 41.693001
20.101601 82.595505 41.631306
20.292418 82.596115 41.645721
20.647459 82.181335 41.873917
20.854 82.111031 41.863754
20.448215 82.451927 41.877682
20.5 82.398003 41.769001
20.165937 82.598289 41.888813
20.32925 82.562126 41.890751
20.030334 82.865837 41.903057
20.49675 82.143753 42.10725
20.58662 82.127563 42.150856
20.838358 82.063713 42.119999
20.443069 82.424431 42.117432
20.105085 82.591965 42.090248
20.3139 82.536461 42.123535
20.539751 81.966751 42.466
20.881779 81.936539 42.386021
20.610416 82.082573 42.357445
20.149939 82.460526 42.369503
20.410347 82.398239 42.350155
20.114 82.640251 42.340248
20.265667 82.525337 42.251999
20.609335 81.900948 42.653683
20.828417 81.838531 42.62114
20.4615 82.196327 42.664829
20.500999 82.181999 42.549999
20.117844 82.374626 42.643658
20.333073 82.335838 42.617332
20.602583 81.659103 42.900146
20.766001 81.567001 42.969002
20.493 81.918999 42.993999
20.569502 81.839912 42.844418
20.135761 82.177719 42.911385
20.380669 82.140915 42.889721
20.126472 82.38858 42.890141
20.283001 82.299004 42.777
20.605751 81.172501 43.226917
20.630377 81.380875 43.131123
20.479668 81.727005 43.215668
20.595098 81.550674 43.081734
20.179306 81.918694 43.214191
20.382183 81.910034 43.157234
20.514 81.779999 43.070332
20.103874 82.082626 43.131252
20.281084 82.065254 43.07896
20.591249 81.087502 43.354996
20.4585 81.41317 43.453667
20.519625 81.361252 43.398499
20.160542 81.631454 43.422295
20.366734 81.638504 43.399303
20.507999 81.518997 43.314999
20.132998 81.806671 43.359333
20.331266 81.820869 43.29707
20.164001 80.865173 43.687832
20.383667 80.934662 43.686169
20.183125 81.135124 43.676876
20.38525 81.118263 43.649483
20.525167 81.056671 43.548664
20.167751 81.388084 43.594639
20.365305 81.352943 43.571362
20.125126 81.586754 43.605125
20.289 81.515503 43.531998
20.299 80.970001 43.750999
