# .PCD v0.7 - Point Cloud Data file format
VERSION 0.7
FIELDS x y z
SIZE 4 4 4
TYPE F F F
COUNT 1 1 1
WIDTH 91
HEIGHT 1
VIEWPOINT -18.2321 96.2205 -1.35163 -0.354149 -0.00701479 0.0211809 0.934923
POINTS 91
DATA ascii
-50.931 -137.94699 12.696
-50.815334 -138.08067 12.887668
-51.091003 -137.94099 12.8305
-50.915501 -137.98074 12.88175
-50.833748 -138.05875 13.13825
-51.084999 -137.92599 13.089
-50.949337 -137.94833 13.129001
-50.813 -138.076 13.3
-51.053001 -137.843 13.491
-50.918995 -137.96899 13.338
-48.959 -139.92999 13.71
-49.346001 -139.65324 13.688001
-49.208 -139.715 13.716
-49.835602 -139.06601 13.640599
-49.68 -139.1725 13.6525
-50.819996 -138.09401 13.6335
-51.256001 -137.79401 13.58
-51.117001 -137.817 13.659665
-50.975998 -137.92101 13.629499
-48.843334 -140.03433 13.861333
-49.078251 -139.82375 13.87325
-48.959499 -139.931 13.868999
-49.335251 -139.62401 13.895
-49.2005 -139.6955 13.868
-49.385666 -139.28166 13.886666
-49.807747 -139.08398 13.86775
-49.6875 -139.1945 13.864
-50.130573 -138.85971 13.875357
-49.941002 -138.981 13.8295
-50.688999 -138.33299 13.927
-50.8246 -138.1066 13.8668
-51.137165 -137.82451 13.877666
-50.973003 -137.91499 13.886666
-51.237499 -137.74699 13.888
-48.8755 -140.0195 14.1425
-49.076496 -139.82033 14.133334
-48.936249 -139.94725 14.1325
-49.315399 -139.60341 14.1308
-49.191334 -139.67233 14.129001
-49.3755 -139.2525 14.144
-49.804169 -139.07483 14.125834
-49.687 -139.192 14.02
-50.107498 -138.85825 14.115999
-50.320171 -138.63783 14.145833
-50.679996 -138.31099 14.132
-50.421001 -138.47501 14.219
-50.819 -138.17686 14.142858
-51.089397 -137.82579 14.125999
-50.973 -137.91699 14.1445
-51.238998 -137.75 14.095
-48.848331 -140.05334 14.421333
-49.070747 -139.806 14.3925
-48.959 -139.9325 14.3895
-49.2645 -139.5945 14.409
-49.185501 -139.6555 14.3885
-49.378998 -139.2635 14.3525
-49.831799 -139.05901 14.3884
-50.062004 -138.89226 14.373
-50.310333 -138.61598 14.369667
-50.200333 -138.70833 14.397667
-50.671001 -138.286 14.339
-50.4235 -138.48151 14.3735
-50.833832 -138.13617 14.379832
-51.094997 -137.81325 14.36275
-50.974998 -137.92349 14.353001
-51.236748 -137.745 14.327499
-48.83025 -140.0565 14.60925
-49.0275 -139.843 14.5995
-48.956001 -139.925 14.598
-49.257 -139.57401 14.614
-49.144249 -139.69699 14.599001
-49.382 -139.272 14.511
-49.830669 -139.04784 14.638667
-49.367001 -139.23151 14.6625
-50.044998 -138.90466 14.638333
-49.943001 -138.99001 14.507
-50.32233 -138.54466 14.639
-50.210751 -138.6925 14.616249
-50.692001 -138.345 14.551
-50.412334 -138.45332 14.631
-50.845573 -138.12729 14.607572
-51.082405 -137.81039 14.6008
-50.971333 -137.91434 14.611333
-49.058666 -139.82666 14.827332
-48.952499 -139.9155 14.806499
-49.291332 -139.55968 14.808667
-49.17675 -139.63925 14.83475
-49.787197 -139.06261 14.8752
-50.056503 -138.8855 14.7715
-50.238998 -138.63499 14.753
-50.963501 -137.89551 14.868
