# .PCD v0.7 - Point Cloud Data file format
VERSION 0.7
FIELDS x y z
SIZE 4 4 4
TYPE F F F
COUNT 1 1 1
WIDTH 94
HEIGHT 1
VIEWPOINT -18.2321 96.2205 -1.35163 -0.354149 -0.00701479 0.0211809 0.934923
POINTS 94
DATA ascii
-3.8530817 -42.89233 10.613697
-3.8057818 -42.89637 10.87396
-3.6185927 -42.785576 10.863895
-3.4140406 -42.751877 10.896738
-3.9291112 -43.072781 11.152779
-3.8168924 -42.888954 11.14694
-3.6112168 -42.774559 11.089993
-3.4183939 -42.757111 11.101648
-3.5520835 -42.748589 11.242084
-3.9227085 -43.023087 11.405583
-3.8282919 -42.879501 11.400486
-3.6922362 -42.780064 11.352908
-3.3876667 -42.754169 11.304501
-3.5506434 -42.739323 11.400002
-3.4305 -42.743477 11.375944
-3.921 -43.005001 11.522
-3.8534744 -42.894604 11.648253
-3.7140567 -42.77187 11.623024
-3.5746543 -42.728844 11.653337
-3.4080403 -42.731956 11.621706
-3.9552917 -43.061375 11.902208
-3.856771 -42.883259 11.886559
-3.7428002 -42.765999 11.9564
-3.6123223 -42.723297 11.868139
-3.410063 -42.686207 11.889647
-3.9502223 -43.024002 12.143556
-3.8565433 -42.856731 12.153105
-3.7439446 -42.757057 12.105
-3.622016 -42.711159 12.142106
-3.4392707 -42.677486 12.1319
-3.8755291 -42.868229 12.406034
-3.6378796 -42.703636 12.371897
-3.4488034 -42.688534 12.392571
-3.8863366 -42.865589 12.635726
-3.7528338 -42.731583 12.65425
-3.6259274 -42.68766 12.618631
-3.44716 -42.679295 12.602163
-3.9756668 -43.016003 12.945999
-3.881943 -42.843052 12.879437
-3.7623703 -42.726551 12.848912
-3.6430261 -42.677116 12.887889
-3.438411 -42.667126 12.875032
-3.9735 -43.005753 13.082001
-3.9055033 -42.865238 13.126945
-3.7781432 -42.719952 13.143382
-3.6383922 -42.665325 13.136465
-3.4241905 -42.618893 13.143907
-3.9058921 -42.858158 13.360346
-3.7904167 -42.716499 13.393709
-3.6469185 -42.657085 13.377543
-3.4308147 -42.6087 13.38544
-3.9094858 -42.84811 13.62558
-3.7763195 -42.695141 13.616652
-3.6160023 -42.638561 13.630937
-3.4516666 -42.631039 13.651038
-3.9368 -42.87167 13.871735
-3.7930222 -42.701561 13.869021
-3.6026919 -42.623371 13.897799
-3.4507835 -42.623276 13.903894
-3.9340668 -42.860466 14.127268
-3.8050396 -42.699986 14.146811
-3.6030636 -42.613201 14.132755
-3.4471667 -42.615833 14.102333
-3.3403332 -42.044003 14.149223
-3.9413891 -42.868252 14.354083
-3.8319836 -42.70887 14.376534
-3.6254454 -42.615131 14.376779
-3.4499583 -42.606182 14.37559
-3.9253666 -42.824757 14.631334
-3.8390002 -42.707867 14.633868
-3.661412 -42.612225 14.629469
-3.4484007 -42.599537 14.644069
-3.3344998 -42.012001 14.598125
-3.9323997 -42.834934 14.871401
-3.8396332 -42.701103 14.873266
-3.6431847 -42.600605 14.872045
-3.4403584 -42.59507 14.920188
-3.3326669 -42.004333 14.759666
-3.9219334 -42.808601 15.1272
-3.8403001 -42.695 15.129933
-3.6636999 -42.601078 15.107201
-3.4417217 -42.590706 15.118587
-3.9266002 -42.811935 15.369067
-3.8368835 -42.685654 15.385051
-3.6405988 -42.588524 15.362322
-3.9203334 -42.796669 15.598458
-3.8249958 -42.671375 15.616175
-3.6435394 -42.582684 15.616905
-3.9360001 -42.822891 15.857112
-3.833663 -42.679359 15.860045
-3.625303 -42.574356 15.866433
-3.9333334 -42.815334 16.1105
-3.8462384 -42.685505 16.118477
-3.8276668 -42.664135 16.363008
