# .PCD v0.7 - Point Cloud Data file format
VERSION 0.7
FIELDS x y z
SIZE 4 4 4
TYPE F F F
COUNT 1 1 1
WIDTH 78
HEIGHT 1
VIEWPOINT -18.2321 96.2205 -1.35163 -0.354149 -0.00701479 0.0211809 0.934923
POINTS 78
DATA ascii
-42.803631 37.449066 0.88298339
-42.757671 37.592892 0.8535555
-42.732403 37.653065 0.85113335
-42.529034 38.208046 0.87495005
-42.807823 37.45623 1.1229084
-42.758877 37.605499 1.1514375
-42.701946 37.643612 1.0826112
-42.534348 38.203323 1.1290267
-42.860867 37.33712 1.3724
-42.720341 37.650497 1.3515056
-42.865147 37.360535 1.6045095
-42.743198 37.662266 1.6471334
-42.856297 37.35466 1.8722
-42.800747 37.525375 1.9134998
-42.736351 37.698135 1.9020166
-42.854065 37.373646 2.0909166
-42.799252 37.524502 2.0982499
-42.738304 37.6992 2.1256001
-42.888668 37.285614 2.3505001
-42.794998 37.5205 2.296
-42.733387 37.735336 2.343111
-42.4785 38.416 2.487
-42.405445 38.624889 2.4774444
-42.866467 37.3713 2.632
-42.785034 37.587116 2.6184502
-42.731667 37.733749 2.6056666
-42.478523 38.425743 2.5963917
-42.415417 38.609726 2.6323481
-42.352867 38.781334 2.6640668
-42.851562 37.410435 2.8278999
-42.801945 37.576252 2.8647499
-42.741966 37.717934 2.8751335
-42.46822 38.471668 2.8467779
-42.415283 38.626019 2.8744836
-42.825001 37.492001 3.0339999
-42.807831 37.559502 3.0413332
-42.743752 37.717503 3.0317502
-42.974998 37.257999 3.4765
-42.849754 37.581501 3.4508748
-42.78656 37.780113 3.4518335
-42.508499 38.5495 3.4755001
-43.000999 37.223999 3.661
-42.989502 37.214001 3.6595001
-42.949211 37.349541 3.6264167
-42.849983 37.63895 3.6462669
-42.783638 37.808369 3.6310668
-42.578102 38.370899 3.6006002
-42.508003 38.5485 3.6053333
-42.47496 38.627083 3.6486666
-43.011002 37.232334 3.8416665
-42.999001 37.222 3.98
-42.944664 37.389668 3.8968334
-42.839832 37.667336 3.8824444
-42.792034 37.793339 3.8856945
-42.580933 38.371471 3.8521335
-42.508865 38.572601 3.8729336
-42.486252 38.640499 3.8044999
-42.405579 38.847988 3.8726838
-43.02 37.240002 4.0219998
-42.939186 37.426105 4.1522708
-42.862686 37.625618 4.1352167
-42.795906 37.798927 4.1366668
-42.580486 38.389584 4.1470833
-42.513638 38.582336 4.1474719
-42.498669 38.598667 4.0743332
-42.411564 38.849857 4.1342864
-42.954681 37.377621 4.3697667
-42.868702 37.614334 4.373733
-42.801411 37.819977 4.3705335
-42.585499 38.387333 4.3804998
-42.518875 38.586376 4.3910418
-42.474888 38.682224 4.3543334
-42.954536 37.39925 4.6164503
-42.865692 37.619251 4.6461806
-42.795586 37.826832 4.6224289
-42.765335 37.56189 4.7923331
-42.653252 37.699123 4.8097496
-42.751335 37.764336 4.7520003
