# .PCD v0.7 - Point Cloud Data file format
VERSION 0.7
FIELDS x y z
SIZE 4 4 4
TYPE F F F
COUNT 1 1 1
WIDTH 115
HEIGHT 1
VIEWPOINT -18.2321 96.2205 -1.35163 -0.354149 -0.00701479 0.0211809 0.934923
POINTS 115
DATA ascii
34.918926 15.954672 16.914871
33.597488 16.885603 16.884624
34.935715 15.963418 17.102839
35.959499 15.181 17.494499
36.139351 15.170631 17.384832
35.486 15.497 17.487
35.67955 15.454194 17.384558
35.870163 15.348972 17.392384
36.026558 15.282639 17.333473
35.189999 15.694 17.471001
35.371208 15.669114 17.384281
35.574383 15.558107 17.360929
34.889847 15.945821 17.406511
35.126072 15.84433 17.37262
35.272141 15.777555 17.308279
34.455666 16.208916 17.447792
34.637505 16.149677 17.398918
34.788712 16.059135 17.346144
33.992336 16.492668 17.468334
34.166584 16.439896 17.413439
34.544601 16.258667 17.353001
33.689167 16.7253 17.435263
33.872952 16.637077 17.405518
33.627819 16.833845 17.355173
35.92485 15.19944 17.567188
36.143501 15.094394 17.608673
35.483002 15.48925 17.560001
35.633087 15.411808 17.602337
35.797207 15.346833 17.654709
36.002998 15.277 17.691
35.161079 15.706251 17.547712
35.377579 15.622213 17.616179
35.584335 15.557459 17.699625
34.891003 15.929676 17.621082
35.11269 15.83782 17.646147
35.273499 15.7875 17.715624
34.409435 16.209097 17.522787
34.654995 16.11021 17.614937
34.789337 16.034084 17.691166
33.9865 16.477001 17.527
34.135406 16.413586 17.57613
34.384888 16.353819 17.665318
34.545433 16.250143 17.667
33.659798 16.703751 17.520248
33.888309 16.633841 17.631845
34.084312 16.533745 17.646255
33.624516 16.852495 17.656185
33.767666 16.788668 17.648335
36.197414 14.962605 17.887396
35.973289 15.181143 17.95686
36.106472 15.12589 17.855146
35.646667 15.48075 17.886002
35.881836 15.365677 17.888456
36.033833 15.299976 17.77581
35.423439 15.701218 17.893648
35.582565 15.567544 17.873741
34.9552 15.965924 17.895531
35.119328 15.884543 17.851904
35.302513 15.780952 17.86198
34.658573 16.173248 17.858629
34.843685 16.042423 17.85358
34.349133 16.412073 17.859678
34.533337 16.290173 17.84289
33.678268 16.715563 17.926155
33.898602 16.701399 17.903795
34.095474 16.564283 17.864388
33.397709 16.84338 17.819613
33.606785 16.790659 17.842302
33.805897 16.769022 17.827682
35.896763 15.182298 18.130014
36.021084 15.087833 18.032665
35.687477 15.411627 18.195759
35.79747 15.337873 18.107313
35.399181 15.692074 18.12944
35.623077 15.572673 18.130236
34.953934 15.968815 18.146677
35.096096 15.883277 18.144575
35.287857 15.797134 18.083181
34.655598 16.169523 18.112902
34.819 16.057558 18.131769
34.353714 16.391872 18.136223
34.535919 16.288376 18.162518
33.64468 16.676735 18.072662
33.84362 16.601837 18.131708
34.135063 16.551382 18.139233
35.473999 15.478667 18.474834
35.62632 15.377554 18.337505
35.387779 15.653563 18.385218
35.539467 15.578401 18.298883
34.984669 15.989167 18.412334
35.155003 15.872615 18.371847
35.271 15.776 18.450251
34.680298 16.191853 18.349562
34.869579 16.064217 18.369669
35 16.000999 18.399
33.976128 16.463436 18.391001
34.121346 16.421558 18.380369
34.360046 16.368298 18.369947
34.546497 16.297628 18.408522
33.919533 16.518435 18.292334
35.450001 15.47125 18.523249
35.198303 15.693637 18.665483
35.330784 15.586502 18.581793
34.909096 15.979194 18.585678
35.109402 15.876513 18.619295
35.253387 15.750616 18.538078
34.418816 16.226082 18.67557
34.643875 16.186571 18.638517
34.825798 16.039879 18.575596
34.191471 16.331165 18.580112
34.336018 16.301281 18.595903
34.545723 16.29089 18.539722
34.925545 15.899954 18.877186
35.050953 15.788677 18.812016
34.832954 16.084835 18.817179
