# .PCD v0.7 - Point Cloud Data file format
VERSION 0.7
FIELDS x y z
SIZE 4 4 4
TYPE F F F
COUNT 1 1 1
WIDTH 70
HEIGHT 1
VIEWPOINT -18.2321 96.2205 -1.35163 -0.354149 -0.00701479 0.0211809 0.934923
POINTS 70
DATA ascii
19.288448 -19.54315 22.488499
19.426224 -19.418169 22.491585
19.549568 -19.303936 22.485466
19.683931 -19.181444 22.483
19.818169 -19.059084 22.473583
19.945477 -18.940952 22.475714
20.100254 -18.799999 22.469755
20.208 -18.701 22.468
20.338161 -18.585951 22.467392
20.464201 -18.4664 22.452
20.597147 -18.345331 22.46439
20.731199 -18.223402 22.4592
20.855474 -18.110264 22.47102
21.008499 -18.007 22.4935
20.982 -17.984251 22.463749
21.130884 -17.867449 22.469879
21.246124 -17.746937 22.45875
21.36697 -17.650703 22.473305
21.517401 -17.511402 22.455399
21.640629 -17.389202 22.444569
21.764435 -17.269001 22.427685
21.916666 -17.135391 22.431387
22.03574 -17.029213 22.424618
22.158358 -16.907984 22.420258
22.288002 -16.786072 22.421574
22.420185 -16.671677 22.425093
22.569008 -16.54953 22.417112
22.660563 -16.445276 22.421452
22.812796 -16.310335 22.403557
22.942162 -16.191502 22.408249
23.067492 -16.073534 22.402092
23.198826 -15.952248 22.404404
23.326433 -15.830585 22.407831
23.457352 -15.708857 22.409527
23.594152 -15.590324 22.403046
19.296453 -19.531931 22.581671
19.386501 -19.429605 22.650763
19.537127 -19.291458 22.641001
19.671955 -19.174465 22.631889
19.799082 -19.049883 22.640612
19.927055 -18.929565 22.643175
20.057726 -18.825336 22.610863
20.191885 -18.690212 22.629305
20.328348 -18.568472 22.613352
20.444775 -18.444689 22.652267
20.587561 -18.325182 22.610834
20.724545 -18.198481 22.621628
20.845253 -18.092152 22.597996
20.963732 -17.971334 22.633703
21.100689 -17.849707 22.598673
21.231621 -17.730095 22.591925
21.359991 -17.610886 22.598156
21.488167 -17.490751 22.610584
21.617752 -17.375834 22.587412
21.750237 -17.262096 22.550095
21.876787 -17.138689 22.58539
22.012436 -17.013374 22.582062
22.141569 -16.893353 22.587063
22.267521 -16.776615 22.590307
22.401939 -16.65395 22.587038
22.537895 -16.530624 22.587154
22.663553 -16.410919 22.584272
22.7855 -16.289999 22.598751
22.894825 -16.193781 22.584742
23.065058 -16.040459 22.562265
23.16828 -15.945312 22.567739
23.298248 -15.824818 22.565048
23.42909 -15.701068 22.581005
23.583233 -15.560818 22.561468
23.698586 -15.453526 22.549644
