# .PCD v0.7 - Point Cloud Data file format
VERSION 0.7
FIELDS x y z
SIZE 4 4 4
TYPE F F F
COUNT 1 1 1
WIDTH 60
HEIGHT 1
VIEWPOINT -18.2321 96.2205 -1.35163 -0.354149 -0.00701479 0.0211809 0.934923
POINTS 60
DATA ascii
-83.041336 -27.257666 6.9433336
-82.556671 -27.540167 7.1302505
-82.373169 -27.680149 7.1329589
-83.008003 -27.27 7.2129998
-82.889091 -27.362343 7.1514063
-82.673103 -27.4501 7.1219001
-83.288376 -27.05825 7.0983748
-83.143066 -27.173697 7.0825
-81.219002 -28.587 7.2870002
-83.2565 -27.063499 7.4809999
-83.115997 -27.176001 7.4990001
-83.345001 -26.962502 7.473
-81.368668 -28.568668 7.6557999
-81.202057 -28.663857 7.6616879
-81.659134 -28.335243 7.6461792
-81.490997 -28.490999 7.6719999
-82.251877 -27.755123 7.5955
-82.540611 -27.532084 7.645083
-82.412056 -27.631083 7.6471944
-82.908051 -27.331453 7.633697
-82.653122 -27.444376 7.6038752
-83.290833 -27.042999 7.5742497
-83.09816 -27.181215 7.6631427
-83.333748 -26.951141 7.6473613
-81.053177 -28.761002 7.8105001
-81.370667 -28.535833 7.921833
-81.178856 -28.660534 7.909934
-81.603058 -28.385807 7.8751111
-81.475334 -28.485832 7.8526664
-81.717499 -28.25 7.8959999
-82.189049 -27.7948 7.8686996
-82.556252 -27.508251 7.9090004
-82.413757 -27.620811 7.9051247
-82.887444 -27.327 7.8829374
-82.664375 -27.4265 7.8788333
-83.147232 -27.136303 7.8804812
-83.339333 -26.961166 7.9033337
-81.389832 -28.523001 8.1476669
-81.169357 -28.66725 8.1252594
-81.633125 -28.357916 8.1274586
-81.466164 -28.483002 8.1560001
-81.718002 -28.25 8.0480003
-82.184853 -27.794001 8.1248503
-82.550163 -27.506834 8.1381664
-82.373238 -27.64422 8.148056
-82.913284 -27.303928 8.1124277
-82.672913 -27.410284 8.1296501
-83.125175 -27.132929 8.1449261
-83.333611 -26.955778 8.1449728
-81.59375 -28.318188 8.3103123
-82.19825 -27.77375 8.2982502
-82.558998 -27.51 8.3219995
-82.383896 -27.618765 8.3234997
-82.248001 -27.599001 8.375
-82.818245 -27.312874 8.2842503
-82.612396 -27.3727 8.3276997
-82.382004 -27.451 8.3660002
-83.126274 -27.071558 8.2852774
-82.938332 -27.172998 8.3156662
-82.653503 -27.1875 8.3505001
