# .PCD v0.7 - Point Cloud Data file format
VERSION 0.7
FIELDS x y z
SIZE 4 4 4
TYPE F F F
COUNT 1 1 1
WIDTH 171
HEIGHT 1
VIEWPOINT -18.2321 96.2205 -1.35163 -0.354149 -0.00701479 0.0211809 0.934923
POINTS 171
DATA ascii
-54.043335 -5.5178337 17.674999
-53.869129 -5.6256247 17.65675
-54.352001 -5.2820001 17.633001
-54.813004 -5.0599999 17.736
-54.650002 -5.1500001 17.716751
-53.894085 -5.7893333 17.939083
-54.306499 -5.5424995 17.96875
-54.114498 -5.6064377 17.874939
-53.949249 -5.7077498 17.859749
-54.569 -5.357625 17.939375
-54.388916 -5.4005833 17.83975
-54.215168 -5.4705005 17.773001
-55.057499 -5.0439997 17.960999
-54.909924 -5.1019287 17.890285
-54.686901 -5.2058997 17.8314
-55.361797 -4.8604002 17.9664
-55.111668 -4.9801669 17.906502
-54.078045 -5.8001428 18.145716
-54.519001 -5.5365 18.179501
-54.366901 -5.5862703 18.103416
-54.171997 -5.7008328 18.081499
-54.830368 -5.3168888 18.137888
-54.632156 -5.4359279 18.131561
-54.466 -5.4710002 18.023001
-55.339165 -5.0271664 18.207333
-55.138783 -5.1025 18.12335
-54.946301 -5.2085223 18.089556
-55.779499 -4.756 18.233
-55.60471 -4.8146787 18.145357
-55.393738 -4.9287143 18.108797
-56.006001 -4.5970001 18.228001
-55.851665 -4.652 18.155003
-55.731998 -4.705667 18.115833
-54.315437 -5.7983427 18.382204
-54.79567 -5.5259995 18.427416
-54.5919 -5.6134539 18.365685
-54.419708 -5.6984167 18.335419
-55.071751 -5.3312497 18.40675
-54.892994 -5.4068694 18.346285
-54.748501 -5.4820004 18.324501
-55.594002 -5.0258331 18.451332
-55.353046 -5.1245189 18.36735
-55.177338 -5.1994586 18.310043
-55.828217 -4.8429289 18.415714
-55.638081 -4.9162774 18.340391
-56.127369 -4.6174078 18.37199
-55.928974 -4.7083058 18.309
-54.597416 -5.7934995 18.658333
-55.036247 -5.552 18.7115
-54.880814 -5.6012502 18.630186
-54.689793 -5.6968746 18.592251
-55.353924 -5.3097143 18.650263
-55.140919 -5.4152713 18.600843
-54.9725 -5.4864998 18.5445
-55.789333 -5.0525556 18.687111
-55.611 -5.1230001 18.620333
-55.407276 -5.2117219 18.552221
-56.252499 -4.7785001 18.738501
-56.148266 -4.8206 18.691935
-55.909374 -4.9145007 18.601604
-56.187668 -4.7336669 18.604168
-54.832741 -5.8076906 18.907549
-55.281998 -5.5290003 18.922001
-55.104736 -5.6148167 18.876183
-54.917854 -5.6900206 18.811977
-55.577 -5.3164048 18.893263
-55.376003 -5.4203811 18.84762
-55.241501 -5.4575005 18.7675
-56.064751 -5.033 18.946251
-55.867222 -5.1165371 18.876556
-55.711334 -5.2000003 18.834417
-56.38829 -4.8039999 18.923958
-56.144684 -4.9167285 18.850342
-55.999001 -4.9949999 18.819
-55.111919 -5.7952361 19.17486
-55.538376 -5.5423751 19.207624
-55.364388 -5.5943666 19.1166
-55.189625 -5.6863747 19.082127
-55.872234 -5.3151331 19.180265
-55.647327 -5.4045506 19.09495
-55.43 -5.4980001 19.028999
-56.304501 -5.0454998 19.191999
-56.122063 -5.1061563 19.109562
-55.921886 -5.2188611 19.086166
-56.385448 -4.9153666 19.089466
-55.305916 -5.8053751 19.388916
-55.8325 -5.52 19.4715
-55.63208 -5.6101937 19.402306
-55.42004 -5.695292 19.333458
-56.128735 -5.3178663 19.442467
-55.883972 -5.4250426 19.367432
-55.746666 -5.4510002 19.266335
-56.12748 -5.2184587 19.294083
-56.669182 -4.8626966 19.382935
-55.751335 -5.7540007 19.744001
-55.588703 -5.8043666 19.660334
-55.385834 -5.8979073 19.612297
-56.050873 -5.54175 19.710751
-55.846668 -5.6040926 19.607
-55.663006 -5.7059999 19.583834
-56.143753 -5.4180837 19.61429
-55.521 -6.0409999 19.968
-55.849987 -5.799367 19.915567
-55.630562 -5.9017706 19.855501
-55.46925 -5.9667501 19.803249
-56.321999 -5.5300002 19.965
-56.133427 -5.6110559 19.906313
-55.90575 -5.6839585 19.803125
-55.750504 -6.0279999 20.1775
-56.084206 -5.7976999 20.144135
-55.91375 -5.8915524 20.118532
-55.701752 -5.9640002 20.029251
-56.544498 -5.5339999 20.193748
-56.388016 -5.6076975 20.151751
-56.213665 -5.6827226 20.08589
-56.452499 -5.4860001 20.040001
-56.037998 -6.0120001 20.43
-55.859478 -6.0682359 20.35029
-56.343185 -5.7946663 20.39699
-56.158806 -5.8956356 20.371521
-55.936001 -5.9905 20.293499
-56.801498 -5.5320001 20.44725
-56.614021 -5.5998335 20.368729
-56.418499 -5.7068329 20.337334
-56.279999 -6.0489998 20.730499
-56.586498 -5.7916002 20.638599
-56.372383 -5.9265084 20.631418
-56.188999 -5.9790001 20.532
-57.058998 -5.5255003 20.682999
-56.865593 -5.6045194 20.623112
-56.679123 -5.69275 20.575251
-56.543667 -6.0323334 20.965332
-56.350952 -6.105454 20.887484
-56.804276 -5.8232493 20.898407
-56.62347 -5.90025 20.840405
-56.492001 -5.973 20.827
-57.339001 -5.5310001 20.966
-57.128006 -5.6013336 20.88139
-56.921997 -5.7058501 20.8349
-56.764 -6.0240002 21.174
-56.616169 -6.0959764 21.143023
-57.072845 -5.8005838 21.139917
-56.881588 -5.899611 21.10425
-56.692001 -5.9857502 21.049
-57.386497 -5.6101999 21.159615
-57.174797 -5.6848998 21.068401
-57.456497 -5.4829998 21.025
-57.0205 -6.0320001 21.453999
-56.867664 -6.0916662 21.396778
-57.356567 -5.7776337 21.390066
-57.147224 -5.9002042 21.378242
-56.935249 -5.9720001 21.285999
-57.638248 -5.5915523 21.366385
-57.415497 -5.6996665 21.325998
-57.122219 -6.0775557 21.631447
-57.603947 -5.8050275 21.67811
-57.372765 -5.9198809 21.626928
-57.122749 -5.9397502 21.529251
-58.031502 -5.5220003 21.6525
-57.876686 -5.6073565 21.635
-57.723251 -5.6942086 21.609251
-57.343124 -6.0636249 21.829
-57.812836 -5.7820001 21.8505
-57.64164 -5.9025717 21.872929
-57.442497 -5.9742498 21.7985
-58.121437 -5.6264057 21.914186
-57.918209 -5.6843748 21.806416
-57.592003 -6.0268331 22.022167
-57.871414 -5.8331666 22.012167
-57.6745 -5.9589996 22.0135
-58.112499 -5.6745 22.025
