# .PCD v0.7 - Point Cloud Data file format
VERSION 0.7
FIELDS x y z
SIZE 4 4 4
TYPE F F F
COUNT 1 1 1
WIDTH 211
HEIGHT 1
VIEWPOINT -18.2321 96.2205 -1.35163 -0.354149 -0.00701479 0.0211809 0.934923
POINTS 211
DATA ascii
102.63 176.19067 24.366667
102.92 176.036 24.497
102.4195 176.3255 24.409
102.553 176.261 24.462
101.136 177.222 24.382
101.001 177.29601 24.424
102.678 176.174 24.608
102.837 176.07832 24.6
102.355 176.39465 24.602333
102.558 176.2715 24.678001
101.906 176.70599 24.672251
102.13924 176.54752 24.643999
101.61066 176.90666 24.627335
101.1915 177.18701 24.598
101.374 177.06799 24.6145
100.83099 177.4185 24.62525
101.00951 177.3125 24.6455
100.593 177.58424 24.654249
102.682 176.1815 24.827999
102.86176 176.07626 24.863251
102.3755 176.38725 24.86075
102.56 176.27499 24.896
101.962 176.66901 24.889
102.163 176.541 24.900002
101.61234 176.91118 24.844168
101.856 176.757 24.895
101.17367 177.20067 24.864
101.33567 177.10432 24.921667
100.82166 177.44499 24.889999
101.013 177.319 24.858999
100.5985 177.5955 24.872499
103.082 175.94267 25.140335
102.684 176.186 25.048
102.84667 176.09767 25.131002
102.39001 176.41376 25.15575
102.57 176.293 25.040001
101.969 176.68201 25.031
102.14799 176.564 25.081001
101.67 176.879 25.130249
101.855 176.755 25.035999
101.29534 177.13667 25.157
101.51 177.00101 25.145
100.895 177.40401 25.000999
101.016 177.32401 25.007
100.59875 177.59676 25.0895
103.0965 175.92151 25.380501
102.693 176.20349 25.4105
102.868 176.09 25.369499
102.405 176.39668 25.411333
102.5675 176.2915 25.4035
101.972 176.6875 25.397999
102.15 176.56976 25.3685
101.6438 176.9144 25.408802
101.8595 176.76651 25.401001
101.145 177.241 25.327499
101.33866 177.11101 25.356001
100.84451 177.44525 25.353498
101.01849 177.33151 25.3675
100.603 177.606 25.37875
103.0425 175.972 25.603001
102.698 176.214 25.625999
102.868 176.09074 25.589249
102.37133 176.42834 25.620001
102.572 176.299 25.621
101.971 176.689 25.612
102.17267 176.56169 25.626001
101.6765 176.892 25.639999
101.857 176.763 25.617001
101.146 177.2455 25.6175
101.32375 177.13651 25.619251
101.512 177.007 25.5795
100.8495 177.45525 25.64225
101.02 177.3365 25.659
100.60775 177.61549 25.6705
103.09033 175.961 25.867332
102.69749 176.2135 25.845501
102.872 176.09924 25.876999
102.3945 176.42523 25.87925
102.57 176.2975 25.837502
101.978 176.7005 25.8335
102.15775 176.58626 25.87775
101.68425 176.90625 25.855751
101.866 176.77899 25.8365
101.32625 177.14349 25.910749
101.5125 177.00949 25.869999
100.83567 177.47499 25.907667
101.10966 177.28734 25.896332
100.609 177.6185 25.886499
103.134 175.94234 26.152334
102.704 176.22701 26.1355
102.882 176.117 26.171749
102.42001 176.42566 26.142334
102.581 176.3185 26.129999
101.983 176.7115 26.122
102.14033 176.60632 26.127668
101.68625 176.91225 26.148001
101.8695 176.78699 26.126499
101.328 177.1465 26.127499
101.519 177.02249 26.1595
100.907 177.4325 26.089001
101.06967 177.32167 26.105001
100.61225 177.625 26.10725
100.803 177.504 26.143
103.116 175.96049 26.3265
102.707 176.23151 26.424999
102.883 176.121 26.3885
103.063 176.01199 26.403
102.38267 176.45235 26.343666
102.58 176.31799 26.42
101.985 176.716 26.4135
102.16425 176.5995 26.386501
101.629 176.96001 26.367001
101.832 176.82201 26.398001
101.33276 177.15599 26.34775
101.527 177.03799 26.381001
100.909 177.43649 26.380001
101.095 177.31549 26.363998
100.61475 177.63174 26.395248
100.80251 177.5045 26.3605
103.1725 175.916 26.605
102.713 176.243 26.645
102.886 176.1265 26.60675
103.06 176.0065 26.623001
102.40425 176.44626 26.606251
102.585 176.327 26.638
101.984 176.717 26.629999
102.187 176.592 26.643667
101.67033 176.93532 26.559668
101.815 176.84399 26.646
101.33601 177.16301 26.638
101.5275 177.0385 26.595501
100.9155 177.4505 26.6695
101.09925 177.32524 26.655499
100.6185 177.6395 26.616001
100.8105 177.51999 26.653
103.1725 175.918 26.895
102.888 176.1315 26.896999
103.064 176.015 26.914501
102.42634 176.44133 26.865667
102.65399 176.29451 26.859749
101.99249 176.73099 26.849998
102.14933 176.62567 26.855333
102.357 176.50101 26.989
101.63651 176.976 26.877499
101.82 176.85374 26.864
101.32001 177.18767 26.901667
101.529 177.0415 26.886499
100.92 177.46001 26.891001
101.1025 177.3315 26.874001
100.62475 177.651 26.83275
100.811 177.52299 26.868
103.183 175.936 27.115
102.707 176.237 27.224001
102.89 176.136 27.1145
102.41734 176.42633 27.152334
102.62866 176.30367 27.124001
101.986 176.722 27.1385
102.1665 176.608 27.110748
101.66367 176.92766 27.184999
101.83401 176.83034 27.126001
101.354 177.146 27.098
101.5175 177.02399 27.174
100.87167 177.461 27.120667
101.094 177.31799 27.088749
100.61375 177.63327 27.1215
100.813 177.52699 27.014999
102.704 176.23199 27.368999
102.876 176.11299 27.327751
102.37333 176.442 27.357
102.562 176.2915 27.428501
101.656 176.72099 27.499001
101.914 176.68999 27.442999
102.142 176.5665 27.395248
101.61933 176.85133 27.415335
101.858 176.774 27.354
101.16766 177.20433 27.373331
101.33266 177.11034 27.333666
101.505 177.00301 27.391001
100.358 177.46301 27.4585
100.566 177.409 27.448
100.8532 177.38782 27.391598
101.012 177.32899 27.322001
100.161 177.561 27.473
100.395 177.66701 27.347
100.5985 177.60699 27.3335
102.71 175.96899 27.664
102.4075 176.17499 27.632999
102.6395 176.12201 27.567001
102.8265 176.03049 27.532
101.991 176.452 27.612
102.165 176.31799 27.618248
102.408 176.32201 27.518
101.499 176.741 27.636999
101.632 176.679 27.634001
101.812 176.55899 27.617001
101.17367 176.93666 27.635332
101.35767 176.84967 27.569334
100.84325 177.18225 27.651501
101.0255 177.0455 27.613001
100.34074 177.43449 27.671
100.6095 177.32901 27.645752
102.62801 175.96649 27.7875
102.805 175.858 27.796
102.38049 176.1295 27.769501
102.558 176.13651 27.921
101.908 176.4505 27.754
102.1515 176.29649 27.833
101.498 176.74001 27.783001
101.6765 176.608 27.765999
101.136 176.97501 27.823
101.3205 176.83749 27.8155
