# .PCD v0.7 - Point Cloud Data file format
VERSION 0.7
FIELDS x y z
SIZE 4 4 4
TYPE F F F
COUNT 1 1 1
WIDTH 1561
HEIGHT 1
VIEWPOINT -18.2321 96.2205 -1.35163 -0.354149 -0.00701479 0.0211809 0.934923
POINTS 1561
DATA ascii
-62.528 -96.081001 24.202999
-62.357498 -96.117493 24.174749
-62.1175 -96.153999 24.116501
-61.887497 -96.203003 24.068001
-62.889252 -95.832001 24.194
-62.637005 -95.886665 24.134165
-62.422333 -95.920662 24.076334
-62.126499 -95.980499 24.0145
-63.358837 -95.571007 24.191
-63.112251 -95.657249 24.153002
-62.879505 -95.631996 24.0665
-62.727001 -95.667999 24.042
-64.0485 -95.252502 24.2255
-63.816002 -95.336998 24.1985
-63.6105 -95.397751 24.164751
-63.360668 -95.381165 24.0765
-63.134499 -95.469498 24.0515
-64.353333 -95.063995 24.225334
-64.094749 -95.071503 24.138748
-63.889503 -95.124748 24.094501
-63.692001 -95.188751 24.072001
-64.608002 -94.860329 24.181665
-64.388596 -94.886002 24.125799
-64.172005 -94.888336 24.056334
-65.253998 -94.536003 24.204
-65.104004 -94.6315 24.20575
-64.889694 -94.634094 24.140301
-64.624008 -94.655998 24.0632
-65.761002 -94.268997 24.212999
-65.617752 -94.30925 24.1875
-65.377243 -94.418243 24.178751
-65.117493 -94.39975 24.07
-66.067497 -94.080498 24.2015
-65.841499 -94.10675 24.146749
-65.623505 -94.140999 24.091
-65.397751 -94.203003 24.04125
-65.225998 -94.199997 24
-66.583 -93.762001 24.198
-66.403168 -93.829674 24.170166
-66.150749 -93.875244 24.10775
-65.905502 -93.952744 24.072001
-65.667999 -93.999001 24.021
-67.007004 -93.518997 24.193001
-66.880333 -93.622993 24.215668
-66.6604 -93.623207 24.1402
-66.421997 -93.636749 24.056
-66.079002 -93.737 24.004
-67.330002 -93.355003 24.206501
-67.139999 -93.386307 24.158398
-66.86216 -93.434509 24.094833
-67.773499 -93.136002 24.2255
-67.600334 -93.106667 24.153666
-67.381897 -93.150009 24.096401
-68.264 -92.785004 24.184
-68.137001 -92.887001 24.197998
-67.880394 -92.8563 24.094601
-67.615997 -92.919006 24.043499
-67.494003 -92.954002 24.028
-68.608253 -92.53775 24.1495
-68.380005 -92.671669 24.153999
-68.139252 -92.669998 24.070625
-69.140663 -92.346008 24.219
-68.874878 -92.373741 24.1425
-68.627335 -92.326996 24.025
-68.398254 -92.45475 24.02375
-69.581001 -92.051003 24.190498
-69.415497 -92.133255 24.181252
-69.138603 -92.122009 24.0802
-70.024498 -91.835495 24.2125
-69.835495 -91.862503 24.166
-69.617996 -91.862709 24.088299
-69.358002 -91.956329 24.053667
-70.653999 -91.524002 24.229
-70.330002 -91.583206 24.1684
-70.123001 -91.628242 24.11875
-69.888832 -91.703163 24.076166
-71.037498 -91.296501 24.235001
-70.826378 -91.3685 24.199627
-70.587494 -91.376755 24.123001
-70.363007 -91.352501 24.032501
-70.202499 -91.399994 24.007
-71.547501 -91.033005 24.246
-71.305496 -91.115501 24.219
-71.127167 -91.142334 24.177832
-70.862495 -91.156166 24.079666
-70.589996 -91.181 24.002001
-71.850006 -90.751007 24.185501
-71.636749 -90.845001 24.16675
-71.402672 -90.91201 24.125999
-71.213997 -90.931335 24.070665
-72.353996 -90.543999 24.243
-72.084503 -90.531494 24.139999
-71.904999 -90.630249 24.134251
-71.638 -90.64875 24.050499
-71.358002 -90.728996 24.004999
-72.600754 -90.299248 24.172749
-72.152122 -90.373627 24.068001
-71.928497 -90.4645 24.034
-73.071503 -90.082001 24.204498
-72.859337 -90.136993 24.162333
-72.627747 -90.101494 24.063749
-72.444504 -90.199997 24.060001
-73.596001 -89.816002 24.215
-73.393669 -89.891663 24.189333
-73.133507 -89.893166 24.109667
-72.872498 -89.960495 24.061001
-72.737999 -89.988998 24.041
-74.104996 -89.540001 24.221001
-73.871002 -89.586502 24.1765
-73.535004 -89.676003 24.09
-73.369331 -89.730995 24.079
-74.579338 -89.290321 24.233
-74.369331 -89.41201 24.234335
-74.144165 -89.333168 24.109833
-73.928497 -89.451004 24.109001
-74.877747 -89.097748 24.215
-74.641838 -89.128334 24.155167
-74.399666 -89.198334 24.113335
-74.128998 -89.184006 24.009499
-75.133003 -88.878998 24.1714
-74.869598 -88.919601 24.107
-74.433998 -88.989998 24
-75.815994 -88.537003 24.2155
-75.598 -88.598 24.177332
-75.367004 -88.659622 24.126875
-75.097748 -88.671005 24.036999
-76.115166 -88.344666 24.204
-75.877998 -88.357498 24.123501
-75.658669 -88.372993 24.057001
-75.446999 -88.483505 24.049999
-76.683502 -88.041 24.210499
-76.405251 -88.093002 24.147999
-76.125999 -88.138 24.0804
-75.805 -88.208 24
-77.128998 -87.809006 24.228001
-76.874596 -87.853989 24.164001
-76.606667 -87.889992 24.093666
-76.326996 -87.909256 24.013
-77.505997 -87.543999 24.188999
-77.335663 -87.608002 24.174667
-77.127838 -87.638832 24.123001
-76.845001 -87.671997 24.035
-76.725998 -87.664001 24.000999
-77.822998 -87.301003 24.157
-77.620804 -87.390793 24.133801
-77.393997 -87.395004 24.0595
-77.220001 -87.482002 24.056999
-78.568001 -87.025002 24.249001
-78.373505 -87.050507 24.195
-78.102753 -87.113495 24.131001
-77.92025 -87.156754 24.098001
-77.638161 -87.191498 24.0205
-78.781998 -86.828003 24.202999
-78.628838 -86.907837 24.197668
-78.375504 -86.869667 24.084833
-78.136665 -86.90567 24.022333
-79.319 -86.510002 24.202
-79.122002 -86.590248 24.18075
-78.867393 -86.639603 24.121799
-78.667503 -86.7015 24.081001
-78.474998 -86.678001 24.002001
-79.564003 -86.283997 24.153
-79.380501 -86.358994 24.133499
-79.096497 -86.4095 24.06325
-78.929001 -86.443001 24.024
-80.110504 -86.031998 24.191999
-79.874001 -86.130997 24.168249
-79.651199 -86.158401 24.1054
-79.361671 -86.188667 24.020998
-80.410332 -85.865669 24.185667
-80.128334 -85.906837 24.123833
-79.908752 -85.897995 24.0445
-80.615005 -85.614876 24.1035
-80.366997 -85.638245 24.03075
-80.063004 -85.739998 24.004999
-80.885002 -85.413666 24.075668
-80.723999 -85.475998 24.066
-84.7995 -85.197998 24.241001
-81.910332 -85.053337 24.206335
-85.382004 -84.765999 24.195999
-85.023003 -84.759003 24.125999
-84.855003 -84.835663 24.122332
-82.253998 -84.813004 24.17
-82.092339 -84.878998 24.159998
-81.841667 -84.862663 24.066332
-81.649498 -84.960999 24.068001
-85.425507 -84.637001 24.171001
-85.056999 -84.681 24.099001
-82.389999 -84.639206 24.125002
-82.14283 -84.634331 24.035501
-81.968002 -84.745003 24.037001
-85.162003 -84.375504 24.008499
-82.591667 -84.408333 24.062332
-82.423996 -84.449997 24.015499
-86.239998 -84.075996 24.118999
-85.378998 -84.227997 24.003
-86.549004 -83.789001 24.077999
-86.352997 -83.769501 24.028999
-86.25 -83.848 24.027
-86.879501 -83.576996 24.061001
-86.671501 -83.612503 24.040501
-58.904003 -98.621666 24.494333
-58.659 -98.599503 24.407501
-58.393169 -98.628502 24.334497
-59.355999 -98.279999 24.455999
-59.103378 -98.391632 24.435875
-58.88525 -98.397751 24.35825
-58.605331 -98.433327 24.286333
-59.868668 -98.046669 24.485001
-59.609329 -98.082001 24.422333
-59.391998 -98.1381 24.375299
-59.119335 -98.203667 24.325666
-58.935001 -98.207001 24.266001
-60.278999 -97.790001 24.473
-60.08025 -97.888504 24.47525
-59.843334 -97.851326 24.363001
-59.606003 -97.920326 24.317001
-60.586998 -97.607498 24.483
-60.408833 -97.614838 24.419333
-60.126995 -97.630798 24.3298
-59.864502 -97.731003 24.3015
-61.092751 -97.30925 24.484501
-60.826248 -97.334259 24.406
-60.620499 -97.351997 24.337334
-60.3685 -97.477493 24.322001
-61.348663 -97.152344 24.473333
-61.122501 -97.089005 24.356251
-60.878998 -97.132996 24.298666
-60.741001 -97.147003 24.263
-61.832504 -96.841248 24.44375
-61.602665 -96.870667 24.386667
-61.3964 -96.915604 24.340601
-61.084 -96.956001 24.253
-62.530998 -96.530998 24.499001
-62.37167 -96.586662 24.471666
-62.086666 -96.612831 24.390333
-61.859497 -96.604752 24.314749
-61.591003 -96.70266 24.272001
-62.832996 -96.261665 24.430666
-62.617752 -96.373253 24.42275
-62.411999 -96.349503 24.34025
-62.1735 -96.464996 24.328751
-63.254002 -96.017998 24.427999
-63.110252 -96.098747 24.4235
-62.912498 -96.123001 24.376251
-62.665665 -96.149666 24.305666
-63.757 -95.763 24.441999
-63.619251 -95.809998 24.428749
-63.424164 -95.862999 24.389502
-63.164333 -95.88134 24.306665
-62.903999 -95.940002 24.275999
-64.127502 -95.585999 24.455502
-63.877373 -95.634872 24.407875
-63.618248 -95.626251 24.309999
-63.317497 -95.746506 24.2915
-64.63166 -95.332336 24.473669
-64.337746 -95.397125 24.414999
-64.115669 -95.426666 24.358665
-63.956001 -95.403999 24.286499
-65.098495 -95.074997 24.485001
-64.864006 -95.095673 24.407333
-64.669128 -95.115372 24.358124
-64.415001 -95.227501 24.34
-65.572495 -94.768997 24.459999
-65.347664 -94.882507 24.444334
-65.11525 -94.897499 24.380001
-64.862663 -94.922668 24.308167
-66.056 -94.556999 24.497999
-65.875336 -94.575996 24.441336
-65.597748 -94.597496 24.355999
-65.343666 -94.660339 24.310667
-65.199997 -94.727997 24.302
-66.458 -94.277 24.479
-66.128998 -94.36087 24.4
-65.890198 -94.373001 24.323601
-65.642998 -94.449501 24.282501
-66.868004 -94.027336 24.451668
-66.613998 -94.137199 24.438999
-66.351501 -94.125877 24.338123
-66.162506 -94.216499 24.3225
-67.148666 -93.860008 24.452002
-66.875748 -93.830505 24.336248
-66.641502 -93.914505 24.304501
-66.495003 -93.907997 24.250999
-67.617996 -93.58075 24.439251
-67.364372 -93.636871 24.38975
-67.10775 -93.694 24.331249
-68.035004 -93.286003 24.398001
-67.891747 -93.422379 24.437626
-67.625748 -93.348999 24.301001
-67.471001 -93.481003 24.326
-68.524002 -93.007004 24.409
-68.363205 -93.114403 24.416201
-68.144402 -93.112198 24.343199
-67.938667 -93.157326 24.294668
-69.093002 -92.823997 24.493999
-68.811752 -92.813248 24.389999
-68.596336 -92.872658 24.347
-68.418663 -92.862671 24.288668
-69.518997 -92.573997 24.493
-69.342659 -92.617332 24.459999
-69.132797 -92.630203 24.391399
-68.882378 -92.654877 24.32025
-68.652496 -92.7015 24.268
-69.835999 -92.325996 24.451
-69.62825 -92.382751 24.41625
-69.400002 -92.363998 24.315601
-69.233002 -92.469002 24.323999
-70.285004 -92.044502 24.43
-70.132332 -92.11367 24.411835
-69.872749 -92.107246 24.33075
-69.673752 -92.175499 24.297501
-70.899002 -91.781998 24.4755
-70.636002 -91.83725 24.414999
-70.389999 -91.872803 24.3626
-70.181503 -91.908501 24.3095
-69.968002 -91.971001 24.278
-70.8685 -91.607254 24.355249
-70.569 -91.621506 24.27
-70.461998 -91.667 24.259001
-71.786003 -91.276001 24.486
-71.646332 -91.355003 24.483999
-71.141998 -91.426506 24.349501
-72.07 -91.029495 24.427
-71.854248 -91.12175 24.410999
-71.596008 -91.192001 24.366501
-71.454002 -91.176003 24.305
-72.565002 -90.809998 24.486
-72.453499 -90.869499 24.4895
-72.1735 -90.906334 24.397833
-71.8815 -90.923996 24.296249
-72.830498 -90.556 24.417999
-72.638 -90.636002 24.396999
-72.358833 -90.683502 24.331503
-72.129501 -90.718002 24.271
-73.396751 -90.317245 24.445749
-73.108994 -90.369606 24.389002
-72.880875 -90.369629 24.311001
-72.654495 -90.462997 24.299
-73.819504 -90.0905 24.457001
-73.602249 -90.181747 24.43675
-73.401505 -90.09375 24.311001
-73.193497 -90.232498 24.328999
-73.656334 -89.954002 24.327002
-74.145668 -89.630501 24.287333
-75.112495 -89.349998 24.456499
-75.542 -89.033997 24.410999
-75.350998 -89.137802 24.411402
-75.111252 -89.123993 24.316999
-76.052002 -88.813995 24.462
-75.869003 -88.854996 24.425999
-75.639877 -88.868378 24.35725
-75.345673 -88.932671 24.283335
-76.329163 -88.634834 24.454
-76.125504 -88.614502 24.37075
-75.908249 -88.645744 24.314001
-75.708 -88.730003 24.294001
-77.031998 -88.253998 24.462
-76.888664 -88.340004 24.467333
-76.637337 -88.362335 24.393333
-76.377167 -88.377991 24.313833
-77.138504 -88.134003 24.428249
-76.866997 -88.127251 24.334749
-76.584999 -88.178001 24.258499
-77.144501 -87.92025 24.307251
-78.8405 -87.264 24.487499
-78.654335 -87.321007 24.450998
-78.328499 -87.305664 24.408834
-79.028 -87.100998 24.448502
-78.901505 -87.12075 24.423248
-78.665756 -87.163498 24.362499
-78.362999 -87.178993 24.268499
-79.554001 -86.766998 24.444
-79.362747 -86.854752 24.426502
-79.132744 -86.908005 24.3825
-78.952499 -86.891495 24.302502
-80.097 -86.501999 24.459
-79.808998 -86.615997 24.443501
-79.620255 -86.621498 24.377748
-79.352669 -86.661339 24.306999
-79.174004 -86.712997 24.271999
-80.349335 -86.286003 24.426332
-80.134827 -86.351997 24.397165
-79.892403 -86.420403 24.3496
-79.613754 -86.432251 24.2645
-80.375 -86.115997 24.325333
-80.171501 -86.152 24.286499
-80.639198 -85.820801 24.314201
-80.487999 -85.952003 24.271
-82.257004 -85.299004 24.468
-82.1185 -85.328003 24.445499
-85.309998 -85.045998 24.296
-85.121002 -85.101997 24.285334
-84.958 -85.175003 24.271
-82.3825 -85.121246 24.407751
-82.126999 -85.096748 24.305252
-81.902 -85.225006 24.313999
-85.353996 -84.977997 24.271999
-82.559502 -84.904503 24.355333
-82.368004 -84.926338 24.285667
-59.286999 -98.795998 24.747999
-59.131332 -98.85067 24.722666
-59.565002 -98.547501 24.688999
-59.406754 -98.642242 24.689501
-59.137398 -98.610397 24.578197
-60.095253 -98.303497 24.723251
-59.870667 -98.358002 24.677332
-59.650124 -98.381622 24.618999
-59.366669 -98.45533 24.571335
-60.374752 -98.095505 24.697498
-60.129253 -98.125755 24.632
-59.868 -98.199669 24.579666
-60.8545 -97.878502 24.739
-60.630604 -97.872597 24.656799
-60.427998 -97.877251 24.584251
-60.223 -97.9245 24.5455
-61.364334 -97.55233 24.720667
-61.142101 -97.636093 24.695499
-60.866875 -97.634369 24.59425
-60.717999 -97.737999 24.611
-61.945 -97.258003 24.733999
-61.611004 -97.371666 24.693666
-61.376251 -97.346252 24.599001
-61.193001 -97.420998 24.587
-60.952 -97.417999 24.501999
-62.102337 -97.059662 24.674332
-61.864334 -97.134003 24.631998
-61.625126 -97.159378 24.570877
-62.633667 -96.84333 24.723
-62.367393 -96.848999 24.634399
-62.137604 -96.876404 24.575401
-61.910999 -96.985504 24.553001
-63.063 -96.543999 24.682499
-62.847336 -96.652 24.680666
-62.643002 -96.635254 24.596251
-62.466999 -96.733002 24.586
-63.392334 -96.376991 24.690332
-63.151501 -96.356201 24.601599
-62.850002 -96.433662 24.545
-64.016998 -96.011002 24.676001
-63.87167 -96.106506 24.680834
-63.601501 -96.126747 24.609501
-63.383999 -96.141251 24.54225
-64.370255 -95.844246 24.6985
-64.141502 -95.900742 24.652
-63.854664 -95.887489 24.554499
-63.699001 -95.962997 24.542
-64.863495 -95.601501 24.717499
-64.624001 -95.633171 24.657167
-64.373497 -95.642662 24.577333
-64.148499 -95.691498 24.5285
-65.385666 -95.292664 24.712667
-65.083496 -95.345253 24.642
-64.864502 -95.386253 24.594749
-64.738998 -95.489998 24.606001
-65.825996 -95.070999 24.726999
-65.62516 -95.091164 24.673834
-65.339996 -95.104164 24.577997
-65.012001 -95.179001 24.514999
-64.938004 -95.205002 24.509001
-66.153336 -94.835999 24.707001
-65.858246 -94.850372 24.606375
-65.634666 -94.936668 24.578001
-65.453003 -94.969002 24.531
-66.644661 -94.545326 24.691999
-66.334503 -94.621246 24.641251
-66.153 -94.624252 24.57225
-65.927994 -94.723999 24.554501
-66.882248 -94.374001 24.667376
-66.609497 -94.391006 24.592251
-66.406998 -94.417999 24.534
-66.882004 -94.186005 24.553667
-68.849251 -93.275253 24.69125
-68.597374 -93.363495 24.654001
-68.381599 -93.38121 24.588802
-68.166 -93.401505 24.5205
-69.324997 -93.065002 24.720501
-69.116753 -93.123497 24.6875
-68.868996 -93.087601 24.577
-68.656006 -93.119499 24.5245
-69.633667 -92.869995 24.710333
-69.415169 -92.916832 24.667999
-69.154999 -92.903664 24.567665
-68.9375 -92.9515 24.514
-70.094498 -92.602997 24.717499
-69.846504 -92.607246 24.627251
-69.632248 -92.67675 24.60075
-69.428001 -92.731003 24.559999
-70.380005 -92.356255 24.653376
-70.130165 -92.382332 24.581167
-69.912331 -92.425667 24.536333
-70.620338 -92.059998 24.633001
-70.454498 -92.130005 24.5375
-70.681999 -91.954002 24.503
-72.003998 -91.555 24.732
-71.8405 -91.6035 24.701002
-71.613335 -91.530998 24.607
-72.363495 -91.274002 24.688999
-72.130501 -91.373749 24.668251
-71.899666 -91.414673 24.604668
-72.832504 -91.080498 24.738499
-72.633667 -91.118996 24.698334
-72.373001 -91.093002 24.5895
-72.122002 -91.165672 24.538666
-71.978996 -91.241997 24.527
-73.0495 -90.830002 24.66
-72.856247 -90.875748 24.61875
-72.648003 -90.883743 24.556751
-72.369003 -90.953003 24.506001
-73.607002 -90.577499 24.686501
-73.380692 -90.565506 24.6024
-73.137749 -90.65625 24.578123
-72.942505 -90.696503 24.539501
-74.035004 -90.354507 24.7015
-73.835129 -90.385376 24.64875
-73.613251 -90.355247 24.5515
-73.962997 -90.200996 24.573
-75.508003 -89.502998 24.690001
-75.37233 -89.594666 24.694
-75.199333 -89.607002 24.640665
-75.798996 -89.277496 24.663
-75.630341 -89.395325 24.667
-75.364334 -89.390831 24.569502
-76.375 -89.065498 24.7355
-76.144997 -89.114998 24.678665
-75.902 -89.109604 24.591801
-75.654327 -89.170677 24.54133
-75.468002 -89.208 24.504999
-76.599174 -88.8685 24.692499
-76.397629 -88.886246 24.63625
-76.138748 -88.915749 24.557749
-77.269997 -88.528 24.709
-77.117004 -88.603668 24.711334
-76.870995 -88.632668 24.638
-76.641502 -88.577332 24.528831
-77.591003 -88.337006 24.7155
-77.369003 -88.398247 24.672752
-77.135994 -88.394836 24.584501
-76.780998 -88.467003 24.507
-79.040001 -87.550003 24.739
-78.883827 -87.597496 24.702332
-78.656998 -87.610001 24.636
-79.302498 -87.278 24.667
-79.133377 -87.391876 24.665751
-78.923668 -87.418663 24.607332
-78.579498 -87.462494 24.518499
-79.806 -87.042999 24.691999
-79.576172 -87.131676 24.672167
-79.388336 -87.14901 24.615999
-79.184006 -87.147995 24.544001
-80.117249 -86.826248 24.67675
-79.867004 -86.862 24.612749
-79.659332 -86.896507 24.558832
-79.397003 -86.959 24.511
-80.803001 -86.535004 24.743999
-80.625748 -86.555252 24.685001
-80.358398 -86.632401 24.640999
-80.112663 -86.635994 24.554331
-79.928001 -86.679001 24.523001
-80.854004 -86.371994 24.659
-80.614006 -86.373009 24.57
-80.421005 -86.421494 24.534
-85.554001 -86.021004 24.735001
-85.481003 -86.068001 24.739
-85.646004 -85.987 24.738001
-85.336998 -85.802002 24.587
-82.140999 -85.767998 24.722
-85.358002 -85.697998 24.566
-82.501999 -85.553001 24.716
-82.375504 -85.597 24.694
-82.130753 -85.583496 24.612751
-82.523003 -85.385498 24.639999
-82.405663 -85.326996 24.546667
-82.238998 -85.453995 24.568001
-82.532997 -85.218002 24.531
-59.798 -98.782997 24.921501
-59.588665 -98.851341 24.8925
-59.432251 -98.886253 24.85125
-60.322998 -98.563499 24.9715
-60.116749 -98.609497 24.917999
-59.887497 -98.616257 24.845751
-59.686001 -98.67334 24.809668
-60.402668 -98.375336 24.877832
-60.183502 -98.44825 24.8445
-59.946999 -98.490997 24.785
-61.620335 -97.810669 24.965002
-60.984001 -97.870003 24.773001
-62.096001 -97.571503 24.983002
-61.857666 -97.58667 24.912666
-61.649208 -97.615196 24.8608
-61.4175 -97.710495 24.835501
-62.371334 -97.307495 24.914499
-62.115002 -97.350197 24.853201
-61.860168 -97.408325 24.802834
-62.890667 -97.092995 24.968332
-62.638 -97.120605 24.892399
-62.362251 -97.095749 24.789751
-62.201 -97.209999 24.794001
-63.351002 -96.758003 24.916
-63.135834 -96.87516 24.914999
-62.885246 -96.859749 24.824249
-62.727001 -96.992996 24.847
-63.604752 -96.62825 24.925001
-63.346249 -96.611 24.824249
-63.113667 -96.693336 24.792334
-63.59967 -96.398003 24.779999
-63.467999 -96.486 24.788
-65.336998 -95.792 24.999001
-65.053001 -95.883499 24.9575
-64.934998 -95.780998 24.849001
-65.578667 -95.574333 24.954332
-65.370506 -95.620171 24.9105
-65.108162 -95.647835 24.835833
-66.097 -95.317505 24.98
-65.8815 -95.367996 24.926001
-65.64225 -95.380005 24.855499
-65.445999 -95.4505 24.835499
-65.247498 -95.444 24.753
-66.351662 -95.121338 24.949999
-66.090248 -95.134499 24.858501
-65.894669 -95.143166 24.799667
-65.684006 -95.234001 24.786499
-66.864998 -94.859993 24.971666
-66.616409 -94.863907 24.8829
-66.399002 -94.907509 24.837
-66.198502 -94.970001 24.8085
-67.345001 -94.561996 24.952999
-67.148247 -94.630753 24.929001
-66.937836 -94.657501 24.872499
-66.601997 -94.695999 24.777
-67.157661 -94.436668 24.811335
-66.985001 -94.472 24.773001
-69.254997 -93.518997 24.990501
-69.077499 -93.550995 24.935501
-68.852005 -93.660492 24.91975
-68.647751 -93.619247 24.826
-69.528 -93.338501 24.964001
-69.407997 -93.448502 24.9925
-69.131744 -93.367126 24.840748
-68.833664 -93.42733 24.774332
-69.898666 -93.084999 24.945665
-69.646828 -93.138664 24.886002
-69.4095 -93.212006 24.845501
-69.169998 -93.195 24.754
-70.339996 -92.859749 24.950001
-70.10067 -92.852333 24.861334
-69.922501 -92.895874 24.83
-69.625 -92.995003 24.802
-70.614601 -92.627602 24.9032
-70.3825 -92.672997 24.849333
-70.195999 -92.669006 24.784
-72.289001 -91.773003 24.962
-72.153664 -91.872993 24.976667
-71.937004 -91.838997 24.883001
-72.574493 -91.542 24.9305
-72.395248 -91.611 24.901501
-72.134834 -91.645164 24.824667
-73.101997 -91.355003 24.993
-72.892899 -91.394402 24.9576
-72.609879 -91.359131 24.832874
-72.390503 -91.435997 24.791
-72.248001 -91.466003 24.766001
-73.334503 -91.046997 24.888
-73.140251 -91.133255 24.8755
-72.977997 -91.130501 24.821999
-73.829338 -90.817993 24.922667
-73.605598 -90.8582 24.868599
-73.380798 -90.860794 24.789999
-73.156494 -90.963501 24.782499
-74.277 -90.586998 24.933001
-74.100998 -90.6036 24.882
-73.926994 -90.636658 24.837999
-73.749496 -90.651001 24.790501
-74.169998 -90.455002 24.813999
-75.400002 -90.013 24.962999
-75.880005 -89.753998 24.976501
-75.632751 -89.842003 24.938999
-75.423332 -89.851837 24.876669
-76.108002 -89.520004 24.919001
-75.915001 -89.607338 24.896334
-75.623001 -89.639336 24.814001
-76.551003 -89.336998 24.965
-76.415001 -89.367004 24.931
-76.133499 -89.340744 24.816124
-75.897507 -89.427002 24.78775
-75.710999 -89.495003 24.754
-76.873337 -89.083672 24.916334
-76.653 -89.138199 24.873699
-76.395004 -89.216995 24.831501
-76.249001 -89.237999 24.799999
-77.387665 -88.853172 24.959999
-77.112503 -88.927498 24.912624
-76.850494 -88.862671 24.773834
-77.829498 -88.610504 24.9655
-77.600372 -88.647621 24.911999
-77.369995 -88.644661 24.825668
-77.1185 -88.729004 24.791
-77.887001 -88.482002 24.93
-77.625 -88.440002 24.793999
-79.314499 -87.791504 24.9785
-79.164505 -87.869995 24.9795
-78.897667 -87.879662 24.889666
-78.729996 -87.753998 24.761
-79.607742 -87.524002 24.9245
-79.413666 -87.657326 24.932665
-79.146172 -87.685829 24.856001
-78.856003 -87.709 24.766001
-80.022003 -87.280998 24.934
-79.840248 -87.379997 24.918751
-79.597 -87.358505 24.823502
-79.419495 -87.407501 24.789
-80.564003 -87.008003 24.948999
-80.361748 -87.091995 24.925001
-80.108246 -87.124756 24.859249
-79.844498 -87.178497 24.798166
-79.646004 -87.232002 24.761999
-81.043999 -86.793999 24.99
-80.874496 -86.791 24.924999
-80.629204 -86.851799 24.8778
-80.410995 -86.903 24.820999
-80.210495 -86.921997 24.765499
-81.1595 -86.609001 24.9125
-80.889252 -86.658501 24.84775
-80.665001 -86.684998 24.779999
-81.374496 -86.471497 24.898001
-81.095001 -86.415497 24.768499
-80.973999 -86.473 24.761
-60.046501 -99.040497 25.1695
-59.861332 -99.094002 25.134501
-59.64975 -99.089752 25.073
-60.573502 -98.814499 25.206001
-60.393829 -98.86084 25.171499
-60.150402 -98.852196 25.080601
-59.928669 -98.920998 25.046667
-60.523499 -98.574997 25.1535
-60.445 -98.682999 25.089001
-61.870331 -98.056664 25.208
-61.729 -98.139 25.205999
-62.265999 -97.841499 25.2215
-62.0695 -97.845505 25.1415
-61.874748 -97.876755 25.10125
-61.632996 -97.981331 25.111
-62.588501 -97.563499 25.155251
-62.38475 -97.634125 25.12775
-62.152 -97.664505 25.060499
-61.944 -97.730003 25.028
-63.093624 -97.314255 25.173874
-62.855 -97.368996 25.122799
-62.626251 -97.395752 25.064499
-62.431 -97.431999 25.025
-63.632 -97.044006 25.191
-63.359333 -97.144997 25.161835
-63.111748 -97.098999 25.05125
-63.8955 -96.810249 25.13875
-63.655499 -96.893753 25.102999
-63.387127 -96.911499 25.029125
-65.560501 -96.054001 25.243
-65.312256 -96.083252 25.177999
-65.165497 -96.122498 25.151501
-65.797501 -95.827499 25.195
-65.64267 -95.897339 25.180666
-65.405746 -95.859741 25.07025
-65.198997 -95.954498 25.057499
-66.346497 -95.609497 25.2395
-66.11834 -95.639992 25.184668
-65.858162 -95.625832 25.078333
-65.642502 -95.738007 25.077999
-66.591248 -95.325508 25.165251
-66.362503 -95.351501 25.098251
-66.120628 -95.443001 25.063126
-67.285004 -95.028 25.218
-67.098 -95.121002 25.210751
-66.864304 -95.102707 25.1175
-66.637001 -95.154663 25.071669
-66.436996 -95.241997 25.056
-67.559998 -94.795502 25.1805
-67.34375 -94.838997 25.12775
-67.122498 -94.874252 25.064249
-67.397247 -94.67025 25.0525
-68.800995 -94.089836 25.176832
-68.637001 -94.119331 25.139
-69.544502 -93.773499 25.242001
-69.3955 -93.841995 25.230499
-69.104004 -93.866257 25.149498
-68.869003 -93.890747 25.074751
-68.635498 -93.910507 25.011
-69.826668 -93.537331 25.194334
-69.619751 -93.60125 25.165751
-69.366005 -93.666168 25.113501
-69.067001 -93.677994 25.009998
-68.970001 -93.749001 25.030001
-70.069336 -93.360664 25.172333
-69.869751 -93.341629 25.091625
-69.651001 -93.433998 25.069
-70.596992 -93.110329 25.197332
-70.366997 -93.097168 25.111166
-70.126747 -93.133247 25.0555
-71.136505 -92.759995 25.186501
-70.914749 -92.871506 25.163752
-70.664505 -92.904373 25.092251
-70.850838 -92.698158 25.035833
-72.052002 -92.268997 25.191
-72.369171 -92.124168 25.215834
-72.141129 -92.138123 25.141251
-73.042 -91.803001 25.247
-72.847 -91.825996 25.197001
-72.620499 -91.863251 25.144499
-72.376999 -91.868835 25.0625
-72.245003 -91.986 25.09
-73.315002 -91.622002 25.239
-73.137878 -91.61425 25.167625
-72.902748 -91.663742 25.1215
-72.665749 -91.657745 25.0355
-73.58567 -91.297997 25.131332
-73.388504 -91.384338 25.1175
-73.220505 -91.400253 25.07
-74.098 -91.050003 25.161001
-73.880501 -91.124504 25.129499
-73.666626 -91.124878 25.05275
-73.449501 -91.190506 25.012501
-74.38575 -90.914749 25.174
-74.146332 -90.817665 25.036667
-73.966499 -90.918999 25.035
-74.350494 -90.740997 25.063499
-75.603249 -90.29425 25.2145
-76.098999 -90.014496 25.2225
-75.845001 -90.095245 25.1805
-75.602249 -90.097252 25.088249
-75.442001 -90.199997 25.097
-76.333496 -89.785995 25.1675
-76.111504 -89.840752 25.112999
-75.889496 -89.889999 25.067001
-75.734001 -89.960999 25.0485
-76.865997 -89.575996 25.225332
-76.5755 -89.653244 25.165501
-76.377251 -89.595749 25.064877
-76.143501 -89.684998 25.032499
-77.466003 -89.260002 25.243
-77.097328 -89.344666 25.162333
-76.868668 -89.432335 25.140497
-76.63166 -89.429993 25.048666
-77.615501 -89.115746 25.203999
-77.358673 -89.133667 25.120333
-77.140999 -89.136497 25.052502
-76.962502 -89.249496 25.0485
-78.075668 -88.827003 25.197668
-77.839798 -88.887001 25.148399
-77.605331 -88.915993 25.073334
-77.464996 -89 25.076
-78.253998 -88.660004 25.153999
-78.1035 -88.664497 25.105499
-77.860001 -88.708496 25.040001
-78.945 -88.338242 25.19475
-79.572998 -88.014 25.216
-79.359337 -88.086159 25.188501
-79.122658 -88.131325 25.131668
-78.921501 -88.093002 25.024
-80.008003 -87.750999 25.207001
-79.836998 -87.807335 25.173668
-79.629997 -87.897247 25.158751
-79.386665 -87.934334 25.098665
-79.041 -87.977997 25.007
-80.324493 -87.544998 25.186001
-80.107666 -87.567329 25.125334
-79.923752 -87.628746 25.102249
-79.661499 -87.675003 25.0385
-80.806999 -87.272003 25.200001
-80.601501 -87.352997 25.171751
-80.353165 -87.373497 25.0945
-80.112503 -87.435997 25.0485
-79.883003 -87.492996 25.007
-81.328995 -87.037994 25.237
-81.121498 -87.056999 25.175499
-80.896255 -87.118752 25.140247
-80.674004 -87.123009 25.063332
-80.447502 -87.18 25.011
-81.421326 -86.827995 25.139334
-81.157997 -86.917 25.101
-80.900497 -86.939003 25.025499
-86.555 -86.541 25.139
-86.412498 -86.573997 25.1255
-86.166504 -86.574501 25.078499
-81.859665 -86.684326 25.192335
-81.591499 -86.641495 25.08675
-81.369667 -86.649666 25.011667
-81.208 -86.723999 25.007999
-60.3255 -99.341003 25.451
-60.803001 -99.031998 25.439999
-60.612495 -99.117256 25.422249
-60.389832 -99.14991 25.354248
-60.091671 -99.191002 25.285667
-60.642502 -98.927002 25.320999
-62.084999 -98.321503 25.445999
-61.857098 -98.353806 25.397699
-62.358002 -98.122498 25.424501
-62.118397 -98.124191 25.343601
-61.963001 -98.199997 25.323
-63.041 -97.778999 25.438999
-62.865997 -97.808327 25.402666
-62.606598 -97.880798 25.357
-62.430664 -97.929993 25.328667
-62.195 -97.963997 25.257
-63.359997 -97.595001 25.438
-63.1315 -97.616997 25.373499
-62.852665 -97.635994 25.287666
-62.6675 -97.725998 25.282501
-63.838669 -97.32 25.441668
-63.621002 -97.399246 25.404999
-63.359669 -97.345497 25.284332
-63.228001 -97.468002 25.316
-64.313004 -97.041 25.421
-64.132599 -97.119797 25.412199
-63.873249 -97.110497 25.32025
-63.609253 -97.19725 25.280998
-64.350998 -96.950996 25.386999
-64.125336 -96.902 25.274
-63.987999 -96.995003 25.278
-65.614662 -96.323494 25.4345
-65.370377 -96.372002 25.380625
-65.219002 -96.353996 25.32
-66.112 -96.067329 25.447332
-65.836502 -96.141876 25.399876
-65.650497 -96.185501 25.363499
-65.456497 -96.185501 25.291
-66.566002 -95.851997 25.478001
-66.373161 -95.863167 25.411833
-66.12175 -95.872253 25.334749
-65.92067 -95.931999 25.303335
-66.869331 -95.583336 25.422333
-66.6465 -95.617668 25.363668
-66.473495 -95.650497 25.313999
-66.193001 -95.738998 25.284
-67.412003 -95.318497 25.450001
-67.136505 -95.388 25.393749
-66.839165 -95.373169 25.280167
-67.8265 -95.029999 25.422501
-67.650002 -95.132332 25.421335
-67.403793 -95.118195 25.317202
-67.206001 -95.211998 25.319
-67.860504 -94.929001 25.373501
-67.613335 -94.940002 25.296333
-68.843498 -94.542496 25.473
-68.704002 -94.629997 25.483
-69.140999 -94.262329 25.409334
-68.905502 -94.403122 25.416
-68.673996 -94.380493 25.316
-69.806999 -94.055 25.496
-69.605247 -94.131256 25.48525
-69.351501 -94.109497 25.381166
-69.11467 -94.089661 25.290667
-68.921997 -94.162003 25.264
-70.024002 -93.806999 25.434999
-69.896248 -93.886993 25.431499
-69.640503 -93.902 25.358002
-69.266502 -93.949997 25.254002
-70.348495 -93.613998 25.4345
-70.140167 -93.628914 25.36075
-69.925003 -93.672997 25.312
-71.065002 -93.272003 25.450001
-70.819 -93.360001 25.43075
-70.621498 -93.3685 25.368752
-70.384872 -93.391121 25.301374
-71.549004 -93.028 25.487
-71.356499 -93.047501 25.434502
-71.143669 -93.105339 25.396667
-70.918495 -93.119751 25.313999
-70.733002 -93.115997 25.263
-71.655998 -92.971001 25.485001
-71.346497 -92.895004 25.341499
-71.112 -92.927002 25.273666
-72.265999 -92.543999 25.438999
-72.139 -92.648003 25.451668
-72.627998 -92.367668 25.460501
-72.387604 -92.385002 25.3806
-72.153664 -92.398338 25.309668
-73.304001 -92.005997 25.479
-73.152496 -92.076996 25.4645
-72.93 -92.120499 25.407001
-72.631248 -92.148247 25.325626
-73.530502 -91.823502 25.440498
-73.370598 -91.851196 25.401798
-73.132332 -91.920326 25.365667
-72.889244 -91.940498 25.283249
-73.884506 -91.57 25.407749
-73.643753 -91.636505 25.367752
-73.456497 -91.593002 25.271
-74.33567 -91.311005 25.408998
-74.093201 -91.385208 25.3692
-73.840996 -91.356667 25.259333
-73.661499 -91.454498 25.2565
-74.627747 -91.1465 25.4035
-74.421165 -91.134003 25.323166
-74.184998 -91.188499 25.279499
-75.389999 -90.840004 25.465248
-74.612 -90.996002 25.302999
-75.855339 -90.563995 25.464666
-75.585167 -90.645836 25.4195
-76.343002 -90.305 25.475
-76.131744 -90.340248 25.4245
-75.921333 -90.357506 25.363832
-75.661324 -90.462334 25.337
-76.566498 -90.061501 25.415501
-76.345001 -90.117752 25.362751
-76.115997 -90.160004 25.313999
-75.982002 -90.199997 25.292999
-77.132332 -89.825996 25.470667
-76.864502 -89.831245 25.375999
-76.653198 -89.866402 25.327198
-76.390999 -89.94725 25.281
-77.6595 -89.544006 25.493
-77.358665 -89.582664 25.4095
-77.086754 -89.645493 25.342751
-78.023003 -89.268997 25.450001
-77.866005 -89.341331 25.440001
-77.627403 -89.368607 25.3752
-77.34333 -89.370667 25.267334
-77.197998 -89.460999 25.274
-78.2995 -89.114502 25.453251
-78.11834 -89.13134 25.396667
-77.888 -89.147507 25.327999
-77.723999 -89.181999 25.302999
-79.014 -88.769997 25.492001
-78.870499 -88.788498 25.442501
-78.664001 -88.866669 25.413666
-78.384872 -88.863876 25.319374
-78.198997 -88.972 25.326
-77.970001 -88.959999 25.25
-79.151497 -88.570251 25.412251
-78.891495 -88.657249 25.369249
-78.551003 -88.731003 25.292
-79.804001 -88.335999 25.480499
-79.640503 -88.401001 25.477501
-79.392998 -88.372002 25.375999
-79.137665 -88.33651 25.261665
-78.878998 -88.490997 25.261999
-80.158333 -88.039337 25.435667
-79.925171 -88.137825 25.408667
-79.64167 -88.198494 25.35
-79.309998 -88.216003 25.256001
-80.791 -87.752998 25.486
-80.563004 -87.806 25.436501
-80.327499 -87.851997 25.376749
-80.100998 -87.853996 25.301666
-79.915001 -87.956001 25.290501
-81.033997 -87.518997 25.444
-80.862 -87.571999 25.401667
-80.650497 -87.658501 25.373001
-80.41684 -87.644997 25.285666
-81.586998 -87.315498 25.491001
-81.374496 -87.330505 25.428501
-81.102371 -87.355377 25.360249
-80.882004 -87.414497 25.313
-80.696503 -87.451004 25.2645
-81.838661 -87.029663 25.396334
-81.653503 -87.137001 25.398499
-81.408165 -87.124489 25.316666
-81.144501 -87.202499 25.276001
-86.502998 -86.849998 25.253
-86.388 -86.921997 25.2565
-82.308334 -86.803001 25.439333
-82.119667 -86.901672 25.417665
-81.909996 -86.828003 25.297251
-81.62867 -86.926331 25.266001
-82.153999 -86.699997 25.301001
-61.110332 -99.298004 25.700998
-60.908752 -99.404495 25.696999
-61.030998 -99.162003 25.594
-60.8815 -99.200745 25.567499
-61.927002 -98.8395 25.719
-62.546001 -98.519997 25.742001
-62.317497 -98.544006 25.681499
-62.110401 -98.652206 25.670002
-61.907753 -98.613495 25.577
-62.777 -98.268997 25.66
-62.61533 -98.345001 25.649168
-62.3545 -98.376755 25.579
-62.165501 -98.449997 25.5655
-63.306 -98.039001 25.684
-63.130665 -98.069664 25.656
-62.847252 -98.115997 25.588501
-62.614334 -98.167 25.541
-63.540497 -97.878502 25.677
-63.370625 -97.931503 25.649876
-63.078003 -97.914001 25.540501
-62.941002 -97.920998 25.509001
-64.095337 -97.606331 25.700003
-63.852802 -97.623802 25.626598
-63.616749 -97.634003 25.551872
-63.448997 -97.737 25.5555
-64.374504 -97.356834 25.646833
-64.105797 -97.379196 25.560801
-63.819 -97.475998 25.528
-64.598495 -97.182251 25.615999
-64.371254 -97.166 25.525249
-65.545998 -96.763504 25.692501
-65.350334 -96.833672 25.661667
-66.040001 -96.527 25.719
-65.88134 -96.594337 25.703333
-65.636665 -96.627342 25.632334
-65.428497 -96.623001 25.564499
-66.268997 -96.289001 25.643
-66.104805 -96.373596 25.6406
-65.897003 -96.432999 25.602501
-65.639999 -96.456497 25.5315
-66.773003 -96.150002 25.728001
-66.599747 -96.157257 25.677252
-66.375748 -96.147873 25.595251
-66.156006 -96.2015 25.542999
-67.415001 -95.781998 25.733
-67.1185 -95.851875 25.668999
-66.862 -95.914795 25.622997
-66.691002 -95.894325 25.550667
-67.584 -95.60067 25.690332
-67.383743 -95.599503 25.61425
-67.083496 -95.639999 25.528
-66.945999 -95.693001 25.521999
-68.108002 -95.312256 25.68325
-67.834206 -95.3638 25.624201
-67.628746 -95.3815 25.563499
-67.483002 -95.456001 25.554001
-68.540001 -95.040497 25.668499
-68.364006 -95.140999 25.668333
-68.131325 -95.140999 25.583334
-67.940002 -95.190002 25.5515
-69.069 -94.782501 25.702499
-68.870499 -94.863503 25.67725
-68.669502 -94.938004 25.65
-69.346001 -94.542999 25.655668
-69.147499 -94.666122 25.655624
-68.8815 -94.666504 25.563
-70.042496 -94.306999 25.737499
-69.843666 -94.409172 25.736
-69.645508 -94.324257 25.615
-69.423492 -94.403999 25.592251
-69.155334 -94.417328 25.514999
-70.349503 -94.0355 25.682499
-70.145752 -94.121872 25.667877
-69.890999 -94.174004 25.611334
-69.43 -94.242996 25.500999
-70.598663 -93.882332 25.671999
-70.378998 -93.870003 25.597752
-70.169998 -93.932999 25.565001
-71.266998 -93.538002 25.697001
-71.060501 -93.613495 25.682499
-70.877251 -93.651665 25.635668
-70.600334 -93.611336 25.514334
-70.480003 -93.718002 25.531
-71.8405 -93.280998 25.7395
-71.630669 -93.335335 25.701334
-71.33725 -93.359497 25.615501
-71.108833 -93.406166 25.560501
-70.955002 -93.410004 25.511999
-72.102997 -93.074997 25.7015
-71.906334 -93.112999 25.657999
-71.628662 -93.177498 25.601334
-71.361 -93.185997 25.521999
-72.545998 -92.771004 25.674
-72.364494 -92.917824 25.700333
-72.1474 -92.873795 25.599998
-71.922501 -92.979996 25.5825
-72.850998 -92.629669 25.705
-72.627373 -92.663872 25.646126
-72.369667 -92.675667 25.558334
-73.530998 -92.292 25.73
-73.349503 -92.360001 25.7145
-73.103333 -92.411339 25.647001
-72.901199 -92.367203 25.550198
-72.742996 -92.499001 25.589001
-73.754501 -92.104004 25.691502
-73.615837 -92.109673 25.644501
-73.364166 -92.191498 25.613501
-73.138 -92.190331 25.532
-74.122673 -91.855659 25.667999
-73.886833 -91.872833 25.599665
-73.685745 -91.850502 25.519249
-74.600006 -91.572006 25.660999
-74.367798 -91.670799 25.6406
-74.15567 -91.618004 25.526331
-73.988998 -91.674004 25.503
-75.324005 -91.2855 25.723
-74.846603 -91.388405 25.631001
-74.623001 -91.404495 25.562502
-74.400497 -91.455002 25.525999
-75.803001 -91.013 25.722
-75.651665 -91.090332 25.716667
-75.3964 -91.107101 25.636499
-75.157997 -91.153999 25.589001
-76.097504 -90.822495 25.712999
-75.877007 -90.873833 25.665667
-75.638504 -90.880493 25.584
-76.567505 -90.571503 25.722
-76.333 -90.612335 25.671
-76.125999 -90.625748 25.60475
-75.969002 -90.695 25.583
-76.7985 -90.335503 25.6665
-76.594002 -90.412331 25.637667
-76.421249 -90.365997 25.54575
-76.209 -90.471001 25.540001
-77.398994 -90.072998 25.724333
-77.123192 -90.109207 25.642401
-76.880699 -90.147598 25.579601
-76.599503 -90.224998 25.5275
-77.902756 -89.794495 25.737999
-77.602875 -89.850754 25.654999
-77.34433 -89.882996 25.582335
-77.228996 -90 25.617001
-78.297501 -89.526001 25.709
-78.110252 -89.590744 25.688
-77.862 -89.588997 25.594666
-77.587997 -89.654999 25.528
-77.461502 -89.705002 25.518499
-78.595505 -89.358002 25.696499
-78.414253 -89.341995 25.62925
-78.140999 -89.407997 25.579332
-77.976997 -89.473999 25.558001
-79.263 -89.051003 25.746
-79.1035 -89.052498 25.690498
-78.907745 -89.112503 25.6595
-78.654602 -89.133598 25.58
-78.498001 -89.179001 25.558001
-78.217003 -89.242996 25.502001
-79.377998 -88.815834 25.639832
-79.099998 -88.9235 25.613501
-78.842995 -88.945 25.530668
-80.102501 -88.544502 25.726501
-79.903503 -88.663254 25.73175
-79.626495 -88.632751 25.624752
-79.399994 -88.597748 25.516251
-79.176498 -88.696999 25.507999
-80.383667 -88.308327 25.686501
-80.106667 -88.404663 25.637335
-79.86834 -88.470337 25.599998
-79.552002 -88.487999 25.506001
-81.035004 -88.018997 25.736
-80.808502 -88.074997 25.6875
-80.572502 -88.087753 25.6085
-80.375244 -88.126007 25.570999
-80.149498 -88.2155 25.541
-81.336502 -87.778503 25.6975
-81.134247 -87.838745 25.661251
-80.896332 -87.862999 25.588999
-80.673248 -87.926247 25.5445
-81.878998 -87.565002 25.742001
-81.621002 -87.595505 25.679001
-81.371498 -87.6045 25.60725
-81.163002 -87.653664 25.563334
-80.974998 -87.688004 25.509001
-82.121994 -87.269501 25.651001
-81.853371 -87.366501 25.610125
-81.658333 -87.414337 25.576334
-81.389999 -87.467499 25.526001
-82.306999 -87.160332 25.649
-82.137665 -87.10099 25.547333
-81.921005 -87.179504 25.515999
-61.544998 -99.535004 25.995001
-61.304253 -99.576752 25.94425
-61.085999 -99.574005 25.873001
-61.844002 -99.326996 25.983
-61.635666 -99.381004 25.947001
-61.411999 -99.401001 25.8785
-61.190338 -99.428337 25.818666
-62.127872 -99.136246 25.964874
-61.924999 -99.102005 25.872749
-62.810001 -98.777 25.979
-62.631001 -98.811501 25.954498
-62.370502 -98.869499 25.8948
-62.101997 -98.9245 25.828751
-63.027 -98.507004 25.896999
-62.862251 -98.594254 25.892
-62.637665 -98.665993 25.863998
-62.455498 -98.615494 25.775499
-63.614502 -98.292 25.961
-63.359497 -98.350998 25.91025
-63.120335 -98.410332 25.862333
-62.873669 -98.400002 25.771002
-63.820667 -98.081665 25.900665
-63.636253 -98.099503 25.84725
-63.39967 -98.186668 25.815001
-63.167999 -98.204498 25.762501
-64.608002 -97.779999 25.989
-64.317749 -97.830994 25.924
-64.122169 -97.873833 25.879999
-63.885498 -97.883995 25.80275
-63.729 -97.938004 25.778999
-64.810997 -97.505997 25.892
-64.660835 -97.592674 25.892334
-64.362495 -97.637169 25.810003
-65.346001 -97.341995 25.965
-65.116333 -97.366333 25.903999
-64.895203 -97.364197 25.829199
-64.652336 -97.409668 25.773666
-64.454002 -97.475006 25.752499
-65.772003 -97.022003 25.944
-65.598 -97.095505 25.915501
-65.370499 -97.137253 25.857626
-65.121002 -97.225502 25.820499
-66.275497 -96.802505 25.960999
-66.107666 -96.859337 25.939835
-65.921249 -96.907501 25.908749
-65.639755 -96.899498 25.807251
-65.439003 -96.968002 25.781
-66.610504 -96.584999 25.952499
-66.367996 -96.616409 25.878601
-66.177498 -96.658501 25.834999
-65.839005 -96.75 25.781
-67.147499 -96.2705 25.944
-66.884796 -96.361305 25.907101
-66.65033 -96.385498 25.837667
-66.42733 -96.433006 25.794668
-67.619003 -96.072998 25.986
-67.342163 -96.094666 25.8995
-67.115005 -96.114243 25.832251
-66.910004 -96.141998 25.778
-67.891754 -95.824005 25.92025
-67.619705 -95.893295 25.877499
-67.343002 -95.904999 25.784
-67.232002 -95.959999 25.771999
-68.367332 -95.570335 25.928001
-68.088005 -95.633995 25.883667
-67.848251 -95.621506 25.789249
-68.627625 -95.348251 25.887375
-68.399124 -95.384247 25.828751
-68.147995 -95.483002 25.800499
-69.3815 -95.076004 25.990002
-69.140625 -95.112122 25.926125
-68.874329 -95.154335 25.8585
-68.677666 -95.159668 25.787333
-69.919998 -94.772003 25.996
-69.599998 -94.824997 25.917
-69.390335 -94.876991 25.876999
-69.176003 -94.930496 25.827
-70.278 -94.557999 25.982
-70.106247 -94.604248 25.95425
-69.876602 -94.623795 25.883799
-69.619507 -94.638504 25.806002
-69.404999 -94.691498 25.768501
-70.772003 -94.250999 25.968
-70.589333 -94.290672 25.933668
-70.363495 -94.374168 25.898666
-70.191002 -94.406998 25.8535
-71.108665 -94.014671 25.933001
-70.855331 -94.087669 25.894999
-70.615501 -94.116501 25.828499
-70.412003 -94.189331 25.806999
-71.349747 -93.859253 25.9245
-71.150497 -93.865005 25.859501
-70.905663 -93.880669 25.778666
-70.710495 -93.964005 25.768501
-72.054001 -93.558998 25.991501
-71.897995 -93.616501 25.966999
-71.61525 -93.657005 25.89975
-71.403496 -93.617752 25.798
-71.2005 -93.666 25.756001
-72.366669 -93.325661 25.953165
-72.1315 -93.385162 25.906832
-71.905334 -93.428337 25.859335
-71.633003 -93.476006 25.791334
-72.847 -93.027336 25.947334
-72.626663 -93.140999 25.939001
-72.389992 -93.107666 25.827665
-72.205505 -93.208 25.825001
-73.129669 -92.848671 25.933334
-72.940826 -92.857826 25.877335
-72.650826 -92.929665 25.813166
-73.820999 -92.528 25.98
-73.631004 -92.572662 25.946501
-73.370102 -92.603104 25.866901
-73.111252 -92.657997 25.804501
-74.359001 -92.253998 25.993999
-74.047997 -92.264999 25.896
-73.925247 -92.385498 25.928001
-73.64167 -92.407997 25.852999
-74.303497 -92.091751 25.875999
-74.101746 -92.144501 25.83675
-73.897003 -92.145004 25.769001
-74.897003 -91.809006 25.908001
-74.624756 -91.921005 25.891125
-74.424332 -91.90567 25.809
-74.246994 -91.929497 25.757999
-75.550995 -91.561996 25.9725
-75.261002 -91.667999 25.929001
-75.060371 -91.659874 25.87075
-74.830666 -91.659668 25.787001
-74.617996 -91.723495 25.7745
-76.056999 -91.255005 25.966
-75.865662 -91.348999 25.962
-75.650696 -91.3629 25.8815
-75.438499 -91.4245 25.849998
-76.396255 -91.048752 25.959749
-76.140999 -91.10675 25.90225
-75.901665 -91.133331 25.834665
-76.794495 -90.841995 25.975
-76.563667 -90.887329 25.921333
-76.327003 -90.864998 25.821665
-76.189003 -90.959 25.832001
-77.106499 -90.568497 25.910999
-76.877197 -90.606003 25.857199
-76.629997 -90.709999 25.833
-76.438004 -90.745003 25.792
-77.630669 -90.342995 25.975332
-77.378799 -90.344696 25.880701
-77.145172 -90.39917 25.826334
-76.959999 -90.463997 25.797001
-78.167 -90.069328 25.992332
-77.849998 -90.091003 25.897001
-77.614746 -90.167503 25.859249
-78.575996 -89.787003 25.973
-78.353325 -89.881325 25.944
-78.097664 -89.861336 25.845999
-77.871254 -89.950249 25.822001
-77.656998 -89.995003 25.768999
-78.852333 -89.584999 25.931665
-78.648331 -89.631165 25.894333
-78.382751 -89.639122 25.809124
-79.358246 -89.310997 25.945999
-79.106247 -89.400749 25.91025
-78.876999 -89.363251 25.80975
-78.737999 -89.453003 25.812
-79.636749 -89.116257 25.917501
-79.378502 -89.1465 25.8465
-79.097748 -89.203751 25.780499
-80.308746 -88.867004 25.989498
-80.100334 -88.832161 25.899668
-79.864197 -88.885796 25.856598
-79.637169 -88.854164 25.761999
-79.426003 -88.973 25.75
-80.647331 -88.578674 25.941999
-80.3815 -88.665009 25.896999
-80.181 -88.691002 25.844
-81.289001 -88.296997 25.995001
-81.0485 -88.337502 25.9375
-80.887001 -88.403999 25.9205
-80.645203 -88.378403 25.818401
-80.384003 -88.474503 25.789501
-81.604996 -88.069 25.958
-81.360329 -88.114662 25.908667
-81.149506 -88.203995 25.8815
-80.912003 -88.187256 25.796001
-82.130997 -87.835999 25.997
-81.8675 -87.862 25.934502
-81.653999 -87.876877 25.862251
-81.383499 -87.959503 25.821499
-81.177002 -87.974503 25.7635
-82.281998 -87.565506 25.892
-82.130669 -87.626335 25.866999
-81.899796 -87.664993 25.819
-82.315002 -87.350998 25.785
-82.166504 -87.442001 25.768
-62.205002 -99.500999 26.222
-61.838997 -99.650375 26.174875
-61.650002 -99.635002 26.100502
-61.394249 -99.683746 26.053251
-62.546001 -99.290001 26.208
-62.362251 -99.378754 26.203751
-62.152172 -99.353333 26.111166
-61.953671 -99.425995 26.080332
-62.883667 -99.055336 26.195665
-62.628124 -99.130501 26.150875
-62.369999 -99.158333 26.069
-63.121601 -98.904999 26.177002
-62.884663 -98.897331 26.094666
-62.6455 -98.917496 26.0245
-63.798 -98.576996 26.2085
-63.637501 -98.6315 26.179501
-63.34808 -98.626411 26.082167
-63.104752 -98.671753 26.02425
-62.963001 -98.722 26.004
-64.092758 -98.314499 26.1425
-63.869999 -98.388252 26.1115
-63.65567 -98.431 26.072001
-63.5 -98.495003 26.052
-64.598503 -98.033752 26.1425
-64.362503 -98.168625 26.145
-64.132668 -98.112335 26.028334
-63.945499 -98.195007 26.017
-65.074501 -97.791 26.152248
-64.870667 -97.837669 26.114334
-64.664001 -97.846008 26.052332
-64.452499 -97.919998 26.019501
-65.5755 -97.572998 26.19175
-65.380501 -97.577499 26.12825
-65.136398 -97.607605 26.057602
-64.877502 -97.677002 26.015499
-66.043999 -97.275002 26.177
-65.920998 -97.353745 26.188
-65.646744 -97.367256 26.095749
-65.375 -97.456497 26.049
-66.371803 -97.112991 26.196402
-66.145668 -97.130333 26.133333
-65.897125 -97.153381 26.053249
-67.093002 -96.769997 26.235001
-66.881493 -96.826012 26.2005
-66.612999 -96.888199 26.139002
-66.386665 -96.898674 26.071333
-66.059998 -96.995003 26.021
-67.334007 -96.537331 26.182665
-67.125999 -96.617004 26.150331
-66.949997 -96.632004 26.0945
-66.658752 -96.678253 26.023251
-67.8395 -96.317505 26.216999
-67.583755 -96.357498 26.150249
-67.379333 -96.364662 26.086664
-67.144997 -96.408669 26.030334
-68.119003 -96.07534 26.165335
-67.901199 -96.122803 26.118298
-67.601662 -96.199341 26.056334
-67.426003 -96.237999 26.017
-68.620255 -95.817245 26.175499
-68.335594 -95.903198 26.130199
-68.082001 -95.883667 26.027334
-69.049004 -95.529999 26.149
-68.856003 -95.617004 26.129831
-68.624756 -95.610245 26.04425
-68.484001 -95.726997 26.066
-69.581001 -95.350494 26.24
-69.34417 -95.352165 26.154501
-69.113251 -95.362251 26.076752
-68.912003 -95.414001 26.031
-70.162994 -95.028 26.235001
-69.838005 -95.078674 26.161001
-69.553162 -95.124329 26.085999
-69.386505 -95.220505 26.0795
-70.546997 -94.786003 26.218
-70.349335 -94.909996 26.2335
-70.124504 -94.83725 26.1075
-69.868004 -94.884338 26.047998
-69.654663 -94.965996 26.028666
-70.889999 -94.553337 26.194
-70.634247 -94.625 26.156248
-70.410995 -94.668243 26.095499
-71.383247 -94.278 26.20475
-71.098755 -94.342743 26.142
-70.852501 -94.339836 26.057001
-70.664505 -94.459 26.056999
-71.654335 -94.054329 26.160667
-71.410507 -94.111252 26.116501
-71.096252 -94.167755 26.027
-72.305 -93.818001 26.237
-72.107002 -93.890999 26.219
-71.884399 -93.860405 26.115398
-71.614998 -93.895996 26.048
-71.412498 -93.946503 26.006001
-72.605247 -93.5895 26.20425
-72.374832 -93.655998 26.161835
-72.154503 -93.684502 26.101
-71.739998 -93.749001 26.002001
-73.115997 -93.306999 26.213501
-72.858002 -93.417336 26.190165
-72.633003 -93.351662 26.071167
-72.450996 -93.457001 26.063999
-73.347336 -93.126335 26.183334
-73.138161 -93.153328 26.129499
-72.87867 -93.200661 26.063334
-74.044998 -92.809998 26.231001
-73.856995 -92.856834 26.201166
-73.627602 -92.876793 26.1327
-73.372002 -92.888756 26.042252
-73.25 -93 26.073
-74.300003 -92.520996 26.15
-74.104248 -92.626747 26.143501
-73.892502 -92.683502 26.104
