# .PCD v0.7 - Point Cloud Data file format
VERSION 0.7
FIELDS x y z
SIZE 4 4 4
TYPE F F F
COUNT 1 1 1
WIDTH 195
HEIGHT 1
VIEWPOINT -18.2321 96.2205 -1.35163 -0.354149 -0.00701479 0.0211809 0.934923
POINTS 195
DATA ascii
-151.78101 -212.299 15.919
-152.091 -212.077 15.86
-151.951 -212.183 15.917
-152.32001 -211.75999 15.883
-152.188 -211.923 15.87
-152.84399 -211.577 15.863
-152.599 -211.55099 15.858
-152.478 -211.673 15.859
-152.92599 -211.36099 15.831
-153.231 -211.187 15.826
-153.60199 -210.8985 15.8685
-153.341 -210.99899 15.944
-154.06732 -210.66066 15.888333
-153.808 -210.70599 15.935
-154.34274 -210.37074 15.876
-154.575 -210.235 15.827
-151.782 -212.299 16.104
-151.5905 -212.3425 16.156
-152.08151 -212.065 16.1355
-151.94501 -212.175 16.1
-152.34 -211.789 16.062
-152.189 -211.924 16.140999
-152.57433 -211.61433 16.166
-152.478 -211.673 16.045
-153.08051 -211.28799 16.098
-152.94051 -211.38199 16.102501
-152.741 -211.435 16.130001
-153.34299 -211.1725 16.165001
-153.186 -211.12601 16.007
-153.62433 -210.87567 16.103666
-154.00999 -210.692 16.124001
-153.78799 -210.67999 16.117001
-154.58701 -210.25101 16.013
-154.44099 -210.36301 16.173
-154.17749 -210.44049 16.1325
-154.6145 -210.129 16.168499
-151.77499 -212.28951 16.3745
-151.61501 -212.37601 16.436001
-152.07401 -212.05499 16.406
-151.9285 -212.15201 16.373501
-152.55499 -211.78101 16.416
-152.3615 -211.819 16.3435
-152.172 -211.90199 16.416
-153.06599 -211.267 16.374001
-152.97 -211.424 16.382999
-152.742 -211.438 16.4
-153.39751 -211.078 16.4035
-153.22701 -211.183 16.374001
-153.85699 -210.774 16.3985
-153.58766 -210.93134 16.366999
-154.002 -210.68201 16.486
-153.957 -210.62 16.302
-154.436 -210.355 16.35
-154.153 -210.4075 16.315498
-154.5815 -210.084 16.349998
-151.771 -212.286 16.650999
-151.62 -212.386 16.622
-152.05099 -212.02299 16.587999
-151.936 -212.16299 16.648001
-152.54201 -211.76401 16.6
-152.368 -211.82899 16.621
-152.202 -211.94299 16.598
-152.65199 -211.62801 16.597
-153.0965 -211.311 16.651501
-152.974 -211.429 16.562
-153.41 -211.095 16.684
-153.2235 -211.1785 16.647999
-153.841 -210.75301 16.671
-153.6265 -210.933 16.6035
-154.16 -210.5715 16.6035
-153.98801 -210.66299 16.669001
-154.59 -210.257 16.562
-154.35925 -210.39375 16.61075
-154.67999 -210.16499 16.650333
-151.771 -212.285 16.83
-151.61349 -212.377 16.892
-152.061 -212.03799 16.862999
-151.938 -212.166 16.834
-152.802 -211.521 16.955
-152.5885 -211.68449 16.960499
-153.089 -211.302 16.924999
-153.394 -211.07401 16.858999
-153.222 -211.177 16.922001
-153.841 -210.75301 16.855
-153.60851 -210.90851 16.875999
-154.133 -210.535 16.875
-153.987 -210.66299 16.854
-154.3385 -210.3665 16.879
-154.64551 -210.1725 16.903999
-151.763 -212.27499 17.105999
-151.59599 -212.35201 17.167
-152.05299 -212.02699 17.136999
-151.92499 -212.14951 17.102501
-152.241 -211.99899 17.149
-153.084 -211.29401 17.110001
-152.97301 -211.42999 17.111
-153.40201 -211.08499 17.138
-153.21899 -211.174 17.108
-153.616 -210.91901 17.150002
-154.129 -210.52951 17.1495
-153.90025 -210.6895 17.123751
-154.32367 -210.39433 17.121332
-151.752 -212.25999 17.375
-151.605 -212.366 17.347
-152.04601 -212.01801 17.320999
-151.918 -212.13901 17.379
-153.0775 -211.28601 17.379501
-153.395 -211.076 17.408001
-153.20799 -211.159 17.375999
-153.63733 -210.89568 17.384001
-154.12199 -210.521 17.422001
-153.89551 -210.68401 17.401001
-154.34967 -210.33501 17.371
-154.61501 -210.18567 17.399332
-151.752 -212.26199 17.745001
-151.745 -212.25101 17.559999
-152.03799 -212.00751 17.595001
-151.9095 -212.12851 17.648998
-153.064 -211.26801 17.655001
-153.36301 -211.034 17.589001
-153.215 -211.17101 17.653999
-153.59351 -210.8895 17.604
-153.498 -210.918 17.726
-154.108 -210.50301 17.606001
-153.8835 -210.6675 17.580999
-154.3455 -210.377 17.612
-151.746 -212.25301 17.929001
-152.048 -212.02299 17.870001
-151.907 -212.12601 17.927
-153.3575 -211.02649 17.862499
-153.1265 -211.2025 17.835501
-153.644 -210.8 17.847
-153.491 -210.908 17.910999
-153.91533 -210.66365 17.824667
-154.34334 -210.32733 17.862333
-154.15033 -210.45833 17.902334
-152.05249 -212.0275 18.145
-151.911 -212.131 18.106001
-153.36501 -211.036 18.138
-153.59534 -210.84065 18.110666
-154.38 -210.283 18.174
-152.04201 -212.01601 18.417999
-151.90201 -212.12 18.382
-152.17999 -211.918 18.424999
-153.347 -211.013 18.322001
-153.56949 -210.858 18.334999
-153.48399 -210.89999 18.458
-153.828 -210.73599 18.315001
-152.035 -212.006 18.601999
-152.18401 -211.924 18.611
-153.647 -210.80701 18.58
-153.48599 -210.903 18.638
-152.037 -212.00699 18.873001
-152.314 -211.758 18.809
-152.16901 -211.9035 18.882999
-152.60901 -211.573 18.8785
-152.4615 -211.6555 18.876499
-152.894 -211.325 18.931
-152.73599 -211.43401 18.962999
-152.319 -211.76601 19.173
-152.09149 -211.939 19.1525
-152.59599 -211.556 19.155001
-152.448 -211.63699 19.145
-152.895 -211.326 19.117001
-152.74899 -211.452 19.149
-152.31799 -211.76601 19.358
-152.0845 -211.9305 19.3335
-152.582 -211.536 19.33
-152.45599 -211.64799 19.332001
-152.89801 -211.33099 19.391499
-152.3145 -211.7605 19.632
-152.11 -211.91933 19.578667
-152.582 -211.53751 19.608501
-152.45001 -211.64101 19.605999
-152.89799 -211.33299 19.666
-152.741 -211.44199 19.605
-152.327 -211.77901 19.907
-152.58501 -211.543 19.879999
-152.44099 -211.63 19.879
-152.758 -211.467 19.884001
-152.06834 -211.959 20.126001
-152.59451 -211.556 20.158001
-152.439 -211.6275 20.152
-152.87601 -211.30099 20.212
-152.73401 -211.4335 20.153
-152.3105 -211.75751 20.362
-152.15399 -211.88651 20.346001
-151.993 -211.951 20.427
-152.57899 -211.536 20.429001
-152.42799 -211.61301 20.426001
-152.886 -211.31799 20.398001
-152.716 -211.41 20.427999
-152.875 -211.30099 20.575001
-152.73 -211.42999 20.608999
-152.42999 -211.617 20.976
