# .PCD v0.7 - Point Cloud Data file format
VERSION 0.7
FIELDS x y z
SIZE 4 4 4
TYPE F F F
COUNT 1 1 1
WIDTH 92
HEIGHT 1
VIEWPOINT -18.2321 96.2205 -1.35163 -0.354149 -0.00701479 0.0211809 0.934923
POINTS 92
DATA ascii
-39.358501 -111.11075 5.4662495
-38.8195 -111.54191 5.6150002
-39.078499 -111.33679 5.6164999
-38.952084 -111.43674 5.6360831
-39.345951 -111.11001 5.6319547
-39.188831 -111.24583 5.6401668
-40.032917 -110.57142 5.5968332
-40.311249 -110.35425 5.6110001
-40.174 -110.44317 5.6491666
-40.751499 -110.008 5.5430002
-40.62431 -110.10313 5.6398754
-40.747501 -109.9985 5.7069998
-38.804001 -111.5444 5.8767996
-38.626247 -111.672 5.87075
-39.103996 -111.3082 5.8807001
-38.947998 -111.42584 5.9251671
-39.37925 -111.07613 5.8842497
-39.249001 -111.188 5.9759998
-39.5285 -110.96767 5.868
-40.039391 -110.55917 5.841167
-39.861 -110.69908 5.8734999
-40.30825 -110.34675 5.8432503
-40.170376 -110.43488 5.9161253
-40.591969 -110.11847 5.8608623
-40.493999 -110.244 5.8260002
-40.880001 -109.87951 5.9135833
-40.74725 -109.9965 5.8912501
-38.80825 -111.53337 6.0881252
-38.643429 -111.65208 6.1046424
-39.10725 -111.29325 6.1191497
-38.939098 -111.4266 6.1181998
-39.375069 -111.06679 6.1109285
-39.247334 -111.185 6.1386666
-39.768002 -110.755 6.1905003
-39.527 -110.96249 6.0869999
-40.049225 -110.53955 6.1459999
-39.895123 -110.66075 6.1407499
-40.336166 -110.31333 6.1546669
-40.184834 -110.41891 6.1469169
-40.592083 -110.10592 6.1454163
-40.479 -110.202 6.1949997
-40.870003 -109.88225 6.1296248
-40.743332 -109.98667 6.1590004
-38.806 -111.527 6.2729998
-38.629063 -111.64937 6.3636875
-39.066628 -111.31287 6.3649998
-38.916859 -111.43071 6.3870001
-39.389561 -111.04188 6.3693748
-39.209335 -111.1965 6.4206672
-39.522671 -110.9515 6.3616662
-40.05925 -110.51974 6.41575
-39.905502 -110.64222 6.3788886
-40.332748 -110.30475 6.3942499
-40.181374 -110.41063 6.4035001
-40.589314 -110.09894 6.398375
-40.472252 -110.18475 6.4194999
-40.884212 -109.85636 6.3901434
-40.740753 -109.97951 6.3832502
-38.766998 -111.535 6.6810002
-38.633442 -111.63416 6.6004448
-39.03825 -111.3265 6.5900002
-38.904087 -111.43158 6.5907502
-39.345612 -111.0585 6.6408887
-39.202168 -111.19197 6.6148329
-39.612499 -110.87933 6.6521668
-39.449501 -110.9965 6.58075
-40.046833 -110.52216 6.6455002
-39.889549 -110.64254 6.6256003
-40.300503 -110.32616 6.657166
-40.161167 -110.4105 6.6340003
-40.771 -110.063 6.7389998
-40.590748 -110.103 6.6450839
-40.470001 -110.17933 6.6443329
-40.873886 -109.86323 6.6307774
-40.737 -109.9705 6.6079998
-38.807251 -111.59125 6.8105001
-38.5938 -111.6508 6.8160005
-39.272999 -111.259 6.8049998
-39.034 -111.315 6.7750001
-38.901333 -111.424 6.7763329
-39.5895 -111.0775 6.8582501
-39.393253 -111.10541 6.895083
-39.129665 -111.24933 6.7536669
-39.852001 -110.81733 6.7909999
-39.696999 -110.952 6.8060002
-39.449001 -110.995 6.7659998
-40.124001 -110.7 6.8169999
-40.359501 -110.48816 6.9008331
-40.174904 -110.4221 6.8896003
-39.584 -111.127 7.0865002
-39.396416 -111.09425 7.0848331
-39.425999 -111.05366 7.3483334
