# .PCD v0.7 - Point Cloud Data file format
VERSION 0.7
FIELDS x y z
SIZE 4 4 4
TYPE F F F
COUNT 1 1 1
WIDTH 179
HEIGHT 1
VIEWPOINT -18.2321 96.2205 -1.35163 -0.354149 -0.00701479 0.0211809 0.934923
POINTS 179
DATA ascii
99.768997 -76.609497 16.4765
99.833 -76.3815 16.4485
99.706375 -76.628372 16.642124
99.758003 -76.660004 16.573
99.725998 -76.410004 16.621
99.862915 -76.375664 16.630417
100.03167 -76.309662 16.642
99.617836 -76.853592 16.90675
99.689407 -76.624802 16.8904
99.711662 -76.433998 16.893333
99.889374 -76.366745 16.910625
100.034 -76.310997 16.823
99.122498 -76.942505 17.091999
99.560585 -76.869499 17.113083
99.621498 -76.637001 17.1593
99.640999 -76.449501 17.2045
99.885674 -76.363167 17.137835
98.888672 -76.978333 17.361
99.018501 -76.971497 17.297001
99.472397 -76.917397 17.377201
99.519997 -76.782837 17.343832
99.580627 -76.58625 17.362625
99.709 -76.447998 17.38625
99.877571 -76.379868 17.333857
98.890198 -77.069603 17.638901
99.128494 -77.055496 17.6745
99.361801 -77.057999 17.608
99.451172 -76.838753 17.60825
99.491997 -76.660004 17.684
99.519341 -76.601448 17.588888
99.665901 -76.469299 17.611
99.863602 -76.399803 17.6075
99.094498 -77.082253 17.86775
99.362503 -77.080101 17.876301
99.391998 -76.849998 17.88975
99.45314 -76.666428 17.873571
99.541328 -76.541176 17.8685
99.167877 -77.138626 18.093376
99.351501 -76.868332 18.1285
99.429497 -76.640434 18.101141
99.331421 -76.887413 18.361284
99.417648 -76.597923 18.379642
99.695 -76.486 18.421
99.788002 -76.4515 18.3755
98.679504 -77.143997 18.7005
98.825996 -77.149002 18.517
99.109497 -77.203003 18.698
99.292999 -76.869003 18.6185
99.367798 -76.630203 18.642599
99.610283 -76.528893 18.612501
99.695 -76.485001 18.690001
99.795242 -76.455505 18.577251
99.669006 -76.025002 18.677999
99.753998 -76.202003 18.653999
98.665001 -77.168999 18.902668
98.839996 -77.158501 18.8755
99.142181 -77.172058 18.894562
99.265991 -77.083672 18.817331
99.278328 -76.883163 18.859167
99.336571 -76.667427 18.87443
99.557335 -76.550163 18.855333
99.653664 -76.492332 18.837999
99.640999 -76.002998 18.895
99.625 -75.990997 18.894501
98.678497 -77.141998 19.0585
98.856667 -77.170998 19.147667
99.173004 -77.145493 19.118055
99.243004 -76.836502 19.227667
99.255249 -76.863998 19.07925
99.327599 -76.666801 19.115599
99.528282 -76.55011 19.125944
99.660004 -76.486252 19.136
99.705002 -76.163002 19.186001
98.691994 -77.178497 19.34775
98.896004 -77.199997 19.424999
99.162498 -77.125595 19.37191
99.223503 -76.867996 19.411999
99.246506 -76.744499 19.3475
99.392502 -76.604874 19.380291
99.570251 -76.504501 19.37925
99.693665 -76.390327 19.394167
99.683998 -76.146004 19.358999
98.674164 -77.191338 19.63975
98.892334 -77.196663 19.601999
99.150047 -77.134598 19.631044
99.218201 -76.821602 19.635
99.392998 -76.599838 19.644278
99.570999 -76.503998 19.625999
99.654999 -76.451004 19.625
98.665749 -77.183502 19.8995
98.881676 -77.18766 19.869333
99.134247 -77.148117 19.880249
99.222412 -76.883919 19.851
99.243248 -76.660751 19.880749
99.370445 -76.574699 19.89325
99.603172 -76.469002 19.847498
99.502998 -76.226997 19.886999
98.642334 -77.164337 20.148834
98.861671 -77.170998 20.134001
99.136787 -77.146645 20.132999
99.213806 -76.908897 20.0963
99.257996 -76.750999 20.021999
99.232254 -76.67775 20.181751
99.349243 -76.574631 20.1255
99.626389 -76.41777 20.136
98.62413 -77.135254 20.362999
98.890503 -77.137497 20.395626
99.162872 -77.112 20.36825
99.215996 -76.853432 20.359859
99.241501 -76.5755 20.384499
99.360596 -76.587006 20.340599
99.615501 -76.420662 20.424665
98.620598 -77.134003 20.590599
98.8246 -77.095901 20.6366
99.169998 -77.088127 20.633251
99.226601 -76.870003 20.663
99.241241 -76.574493 20.585751
99.409584 -76.533501 20.627417
99.479668 -76.429337 20.640999
99.631676 -76.375168 20.642334
99.698997 -76.040001 20.608999
98.653587 -77.132751 20.909166
98.882004 -77.073997 20.896
99.180199 -77.070908 20.8801
99.229744 -76.6185 20.8755
99.348999 -76.545746 20.86375
99.373604 -76.451401 20.903801
99.627304 -76.337204 20.898899
99.675003 -76.021004 20.785999
98.675011 -77.129669 21.133001
99.161209 -77.066002 21.114798
99.240631 -76.844879 21.085499
99.231499 -76.619003 21.033501
99.256676 -76.620003 21.181334
99.350052 -76.410095 21.142498
99.576332 -76.312668 21.108
99.704002 -76.189331 21.135332
99.267807 -76.863907 21.391001
99.270592 -76.658401 21.378799
99.346855 -76.397354 21.371
99.561165 -76.281166 21.282667
99.375504 -76.227997 21.452499
99.663429 -76.16758 21.376856
99.303917 -76.614502 21.598417
99.368301 -76.382004 21.6287
99.408752 -76.199249 21.630251
99.609856 -76.117722 21.58993
99.697502 -75.863998 21.657
99.770996 -75.973999 21.6395
99.355354 -76.62101 21.859144
99.407852 -76.380569 21.900143
99.418434 -76.119431 21.83143
99.396172 -76.627838 22.154333
99.463829 -76.40667 22.158167
99.500999 -76.320999 22.157
99.468994 -76.105499 22.095499
99.509003 -76.220505 22.181999
99.597878 -75.828873 22.082624
99.464005 -75.737 22.248501
99.576004 -75.714996 22.247499
99.456085 -76.645164 22.369247
99.503998 -76.546997 22.436001
99.495003 -76.433998 22.266001
99.531998 -76.402748 22.3985
99.521599 -76.139297 22.408501
99.480339 -75.825996 22.370001
99.508995 -75.960999 22.374666
99.452995 -75.656334 22.393999
99.479668 -76.709328 22.575668
99.522003 -76.600204 22.645199
99.564873 -76.385368 22.6185
99.560501 -76.090248 22.623751
99.528397 -75.853996 22.6348
99.508331 -76.806 22.906
99.563103 -76.599098 22.8813
99.606834 -76.364998 22.865166
99.591003 -76.112999 22.856001
99.58725 -76.631744 23.05275
99.632004 -76.417999 23
