# .PCD v0.7 - Point Cloud Data file format
VERSION 0.7
FIELDS x y z
SIZE 4 4 4
TYPE F F F
COUNT 1 1 1
WIDTH 143
HEIGHT 1
VIEWPOINT -18.2321 96.2205 -1.35163 -0.354149 -0.00701479 0.0211809 0.934923
POINTS 143
DATA ascii
-50.518749 3.76125 14.931499
-49.850666 7.0668335 14.991834
-49.417999 7.2249446 14.968445
-47.596001 7.0334997 14.979
-49.402748 7.3122501 14.94025
-49.192581 7.3717399 14.942761
-48.866001 7.4607778 14.964223
-49.011002 7.5250001 14.907499
-48.803154 7.6223335 14.96266
-51.042999 2.449667 15.183668
-50.899696 2.3857 15.2026
-50.640499 2.3695998 15.209233
-50.470875 2.4603124 15.216125
-51.623169 2.5880001 15.1605
-51.373589 2.6576443 15.189423
-51.079002 2.5114999 15.189
-50.899498 2.5114999 15.221
-50.388374 2.6490834 15.202
-51.642166 2.9099166 15.155915
-51.333843 2.9136667 15.186681
-50.346981 2.8615832 15.170117
-50.233669 2.9230556 15.2105
-51.304501 3.0257502 15.157499
-51.1045 3.7442501 15.08525
-50.894314 3.7211874 15.132063
-49.935955 3.6849 15.220933
-49.036377 3.6183748 15.21125
-51.0145 3.855 15.0805
-50.841717 3.9051545 15.149944
-50.632336 3.7820003 15.100667
-49.908596 3.8753254 15.17936
-49.419998 3.8860002 15.2485
-49.148338 3.7613335 15.244001
-48.959667 3.8161669 15.228333
-51.409 4.1929998 15.071
-51.119499 4.2048335 15.065667
-50.8862 4.1202002 15.0649
-50.714458 4.1877751 15.153114
-49.84153 4.1477752 15.15995
-49.714249 4.1049166 15.186417
-49.361725 4.0955005 15.236056
-49.128399 4.1225476 15.237
-48.907001 4.2259998 15.236
-51.378448 4.3660955 15.054811
-51.096539 4.3722668 15.051969
-50.851406 4.3670239 15.052429
-50.656864 4.3638153 15.164989
-49.807297 4.2925501 15.138651
-49.720337 4.3711905 15.203568
-49.330502 4.3139167 15.223416
-49.155567 4.3293333 15.227234
-48.876003 4.4173336 15.236668
-51.334335 4.5846114 15.046833
-51.105667 4.5760002 15.043666
-50.921337 4.594667 15.043667
-50.62125 4.6041627 15.092492
-49.754333 4.5456667 15.123668
-49.635353 4.6405921 15.17492
-49.284 4.6409998 15.225
-49.090302 4.6325002 15.211901
-48.895668 4.6101499 15.214067
-48.714752 4.7297497 15.244999
-50.586536 4.8251181 15.053257
-49.593369 4.8486338 15.155617
-49.407806 4.8443098 15.214761
-49.071999 4.8635001 15.1995
-48.869625 4.888875 15.196875
-48.682751 4.9621496 15.2171
-50.844112 5.1155553 15.018779
-50.632889 5.1237493 15.019361
-49.44281 5.1439352 15.169966
-48.804218 5.0763335 15.191777
-48.635765 6.1280336 15.146967
-48.390667 6.1589003 15.153132
-48.572166 6.2921667 15.146166
-48.372639 6.3786392 15.139388
-48.087894 6.4335604 15.199124
-48.886322 6.6323533 15.132291
-48.616333 6.6716113 15.139778
-48.364697 6.6104002 15.129534
-48.07946 6.6105413 15.166896
-47.984596 6.6680002 15.2055
-49.818272 6.8640594 15.105453
-48.790405 6.8785148 15.078935
-48.696587 6.8653336 15.169666
-48.34227 6.8562994 15.1179
-48.140476 6.8535604 15.118537
-47.923252 6.86765 15.185347
-50.357578 7.1544628 15.05248
-49.759335 7.0293331 15.237666
-49.61784 7.0731387 15.114888
-49.391075 7.1672797 15.083834
-49.125523 7.2087002 15.122533
-48.853001 7.0710001 15.01325
-48.720661 7.0768056 15.131828
-48.300251 7.0801253 15.098124
-48.146564 7.1008749 15.100563
-47.896965 7.0714669 15.154268
-47.662331 7.0350838 15.082335
-49.144157 7.301281 15.117188
-48.814251 7.4397502 15.086
-48.651608 7.4697914 15.082105
-48.348003 7.4323335 15.085834
-48.125698 7.4140334 15.0862
-48.639809 7.6324353 15.026267
-50.725998 2.243 15.342501
-50.594234 2.301389 15.364779
-50.432137 2.4175334 15.313133
-50.064556 2.3933334 15.308223
-51.317001 2.7223334 15.379833
-50.331516 2.6204498 15.309583
-51.313274 2.8913593 15.344856
-51.247002 2.987 15.402
-50.30867 2.8061333 15.281867
-50.149632 2.8777132 15.304128
-49.881378 2.813875 15.305
-51.265503 3.0355003 15.338668
-50.913334 3.7258334 15.306667
-49.92675 3.7003334 15.326667
-49.5695 3.7059999 15.2615
-49.370247 3.691 15.25675
-49.089825 3.67575 15.289374
-50.837151 3.9037874 15.32635
-50.744999 3.8150001 15.311
-49.885017 3.8334165 15.306167
-49.264999 3.8393333 15.25
-49.073856 3.8502777 15.315971
-48.826252 3.7955 15.337749
-50.7295 4.178 15.32075
-49.784832 4.1071668 15.306167
-49.539001 4.177 15.257
-48.93293 4.0991015 15.331543
-50.661945 4.3513894 15.322804
-49.705814 4.3640742 15.290446
-48.838463 4.3765569 15.34632
-50.56834 4.6076531 15.296121
-49.594109 4.6128931 15.277678
-48.772797 4.5576987 15.336682
-48.726048 4.67415 15.351224
-49.578999 4.7729998 15.304
-48.664696 4.83675 15.308073
-49.435692 5.1339054 15.258905
-49.875668 6.962667 15.291334
