# .PCD v0.7 - Point Cloud Data file format
VERSION 0.7
FIELDS x y z
SIZE 4 4 4
TYPE F F F
COUNT 1 1 1
WIDTH 63
HEIGHT 1
VIEWPOINT -18.2321 96.2205 -1.35163 -0.354149 -0.00701479 0.0211809 0.934923
POINTS 63
DATA ascii
10.052334 -39.323669 29.242666
10.213519 -39.184906 29.226149
10.273 -39.049 29.174
10.312233 -38.898033 29.204136
10.415125 -38.645584 29.19973
10.562062 -38.573109 29.14666
10.596107 -38.390907 29.174927
9.6282883 -39.86475 29.344824
9.7147293 -39.718697 29.41338
9.8069868 -39.601315 29.34277
9.9229422 -39.431751 29.359213
10.071916 -39.287079 29.374155
10.210386 -39.176632 29.389149
10.263817 -39.050701 29.350653
10.343082 -38.894444 29.381151
10.435955 -38.650558 29.409645
10.528688 -38.599876 29.338375
10.46037 -38.363228 29.402388
10.591667 -38.364666 29.357332
10.496 -38.222 29.298
10.517334 -38.241333 29.400667
9.4149513 -40.104233 29.613594
9.5799961 -39.881226 29.630299
9.7012053 -39.673542 29.615866
9.8172503 -39.560463 29.625051
9.9339628 -39.380814 29.650362
10.047375 -39.270123 29.553127
10.142781 -39.168346 29.631899
10.290536 -39.035931 29.532892
10.188101 -38.901203 29.623001
10.2801 -38.868134 29.540659
10.37908 -38.62426 29.624542
10.4642 -38.420601 29.557602
10.540501 -38.425999 29.620998
10.478 -38.25 29.524
9.4126902 -40.097263 29.858843
9.5183334 -40.005669 29.950666
9.5667753 -39.887936 29.846336
9.6844482 -39.674534 29.879948
9.7967196 -39.565063 29.906658
9.9253778 -39.372383 29.891064
10.108769 -39.120632 29.867014
10.222751 -38.952255 29.7675
10.31474 -38.882595 29.86705
10.411167 -38.717499 29.809113
9.4302301 -40.087341 30.105232
9.5222502 -40.014252 30.11175
9.6193714 -39.831867 30.134809
9.7058001 -39.673698 30.117697
9.8236437 -39.557159 30.152802
9.9250116 -39.393539 30.126822
10.046103 -39.286285 30.118746
10.143514 -39.136444 30.061682
9.4094667 -40.063736 30.354851
9.5083895 -40.033554 30.361502
9.6159277 -39.866558 30.376326
9.7054892 -39.6926 30.404623
9.789216 -39.594387 30.326551
9.8979673 -39.448269 30.301733
10.013 -39.337002 30.253
9.4112921 -40.051151 30.649061
9.5113058 -40.032974 30.640722
9.5744343 -39.896999 30.549032
