# .PCD v0.7 - Point Cloud Data file format
VERSION 0.7
FIELDS x y z
SIZE 4 4 4
TYPE F F F
COUNT 1 1 1
WIDTH 82
HEIGHT 1
VIEWPOINT -18.2321 96.2205 -1.35163 -0.354149 -0.00701479 0.0211809 0.934923
POINTS 82
DATA ascii
2.2823334 -23.556 -0.25466669
2.9243832 -23.576185 -0.25121668
3.091167 -23.614334 -0.2504167
1.9414999 -23.4625 -0.25049999
2.1866503 -23.291851 -0.25835001
2.41325 -23.429251 -0.25608334
2.7145557 -23.356056 -0.26227775
2.8464375 -23.403063 -0.26531249
2.3656111 -23.13352 -0.26863334
2.5962 -23.176159 -0.26721331
2.8803999 -25.356327 -0.1126
2.3683667 -25.100183 -0.1294
2.6447461 -25.068064 -0.13331747
2.9011779 -25.096447 -0.15532233
3.1094999 -25.11454 -0.12510554
2.1497946 -24.899117 -0.14166112
2.4079547 -24.857498 -0.16134909
2.5858312 -24.879131 -0.1740689
2.9072499 -24.906168 -0.18233334
3.1329556 -24.874098 -0.15501945
3.3908 -24.8358 -0.1356
1.6171668 -24.588625 -0.15904167
1.8746411 -24.597174 -0.16097437
2.1185281 -24.612555 -0.18763526
2.3444643 -24.666605 -0.19394642
2.5993333 -24.737722 -0.19783334
2.8727384 -24.61128 -0.19634286
3.1408389 -24.602119 -0.18672222
3.3101587 -24.60659 -0.16572426
3.6236389 -24.623528 -0.14477779
1.3492501 -24.341499 -0.1705
1.658627 -24.335382 -0.19079374
1.865252 -24.41452 -0.19992083
2.1306944 -24.375818 -0.21535556
2.3820999 -24.36915 -0.21031669
2.5410001 -24.445333 -0.20766668
2.8602221 -24.408472 -0.20944445
3.1465595 -24.379654 -0.20692858
3.3893919 -24.372845 -0.19594131
3.6305537 -24.347931 -0.16
1.1554501 -24.155033 -0.18078335
1.3651421 -24.111111 -0.19351861
1.615 -24.162498 -0.21375
1.870119 -24.119549 -0.22107144
2.1334028 -24.099806 -0.22830556
2.3245001 -24.160751 -0.22174999
2.6198332 -24.060831 -0.2115
2.95 -24.125 -0.22275001
3.1270311 -24.144579 -0.22612858
3.3552136 -24.082466 -0.22918665
3.6313744 -24.15023 -0.18770356
3.9090002 -24.034668 -0.17216666
4.0432501 -24.085625 -0.17
1.1045556 -23.894167 -0.19311111
1.3606 -23.919001 -0.2088
1.6522501 -23.874125 -0.22
1.8761945 -23.869888 -0.2368889
2.148375 -23.921957 -0.23883334
2.3380833 -23.825542 -0.231875
2.5226667 -23.942333 -0.21233335
2.869 -23.862299 -0.2253
3.1355 -23.9356 -0.23889999
3.3769085 -23.823648 -0.23929167
3.6369672 -23.85841 -0.22372174
3.8331871 -23.876991 -0.19255741
4.1293502 -23.87945 -0.17919999
1.613 -23.737 -0.22499999
1.928 -23.611 -0.249
2.11095 -23.671417 -0.24866666
2.4031417 -23.598566 -0.2385
2.6114342 -23.595337 -0.16265351
2.8269999 -23.673082 -0.23183334
3.08775 -23.61775 -0.249
3.8989639 -23.680199 -0.20531666
4.0600753 -23.656475 -0.191075
2.0090001 -23.482 -0.245
2.6000972 -23.460575 -0.24556944
3.9545 -23.374001 -0.2105
4.1058002 -23.4289 -0.20032001
1.6069165 -23.136583 -0.22654168
1.822 -22.870499 -0.23662499
2.5811598 -23.567465 0.10238215
