# .PCD v0.7 - Point Cloud Data file format
VERSION 0.7
FIELDS x y z
SIZE 4 4 4
TYPE F F F
COUNT 1 1 1
WIDTH 64
HEIGHT 1
VIEWPOINT -18.2321 96.2205 -1.35163 -0.354149 -0.00701479 0.0211809 0.934923
POINTS 64
DATA ascii
14.912082 -21.303366 15.498101
15.0346 -21.304501 15.495501
15.118854 -23.849222 15.624869
15.367469 -23.880919 15.629403
15.648829 -23.879948 15.629577
15.133628 -23.63312 15.614159
15.365249 -23.616415 15.614586
15.616923 -23.633001 15.618669
15.866619 -23.617075 15.61752
14.714523 -23.287796 15.593068
14.864735 -23.36496 15.600207
15.156454 -23.36249 15.599957
15.404658 -23.350559 15.602334
15.633951 -23.338232 15.602973
15.864019 -23.368198 15.605117
16.120043 -23.356625 15.604663
14.637208 -23.128874 15.584668
14.864331 -23.114428 15.585298
15.137091 -23.122107 15.590219
15.390071 -23.130695 15.59223
15.634758 -23.135729 15.592763
15.896047 -23.142878 15.592729
16.137672 -23.143139 15.594444
14.432584 -22.87414 15.571584
14.634312 -22.865932 15.572424
14.908003 -22.869183 15.574789
15.149068 -22.896881 15.578308
15.368805 -22.871555 15.578169
15.620851 -22.863649 15.577932
15.882133 -22.86895 15.58038
16.103819 -22.898039 15.581974
14.364305 -22.634724 15.558481
14.630055 -22.609669 15.560339
14.849222 -22.635344 15.563065
15.137242 -22.637835 15.565281
15.399513 -22.64892 15.567119
15.59971 -22.600714 15.565856
15.833724 -22.641783 15.567191
14.173561 -22.365097 15.544579
14.380623 -22.348709 15.544716
14.647575 -22.363852 15.548277
14.910393 -22.372755 15.549106
15.1494 -22.350832 15.548576
15.378214 -22.366625 15.552718
15.642738 -22.364634 15.554102
14.368828 -22.114998 15.534051
14.633468 -22.134384 15.53675
14.8672 -22.116104 15.537549
15.088125 -22.129614 15.538722
15.352277 -22.100229 15.537037
15.592768 -22.154079 15.5435
14.357178 -21.857697 15.52101
14.63016 -21.911921 15.523497
14.863291 -21.839081 15.522412
15.100795 -21.850344 15.525054
15.343141 -21.885744 15.528862
14.455376 -21.69932 15.517324
14.637177 -21.637718 15.511119
14.897159 -21.599613 15.509481
15.156974 -21.623072 15.51411
15.304 -21.684999 15.52
14.70768 -21.45475 15.507179
14.871346 -21.378874 15.505576
15.088718 -21.41132 15.503038
