# .PCD v0.7 - Point Cloud Data file format
VERSION 0.7
FIELDS x y z
SIZE 4 4 4
TYPE F F F
COUNT 1 1 1
WIDTH 78
HEIGHT 1
VIEWPOINT -18.2321 96.2205 -1.35163 -0.354149 -0.00701479 0.0211809 0.934923
POINTS 78
DATA ascii
35.062168 15.563222 8.6539993
37.621357 13.863107 8.8693171
36.236645 14.728371 8.9032125
36.374332 14.630418 8.8588676
34.899258 15.619061 8.8727722
35.066486 15.527077 8.8675489
37.741623 13.727696 9.1421747
37.81258 13.674138 9.117013
37.405296 13.946845 9.1186161
37.601471 13.826307 9.1321888
36.955303 14.243401 9.1352997
37.118847 14.152049 9.1499147
36.663872 14.45218 9.1173592
36.856117 14.32518 9.1153708
36.246986 14.731376 9.1015692
36.377216 14.639896 9.1288347
36.575436 14.531549 9.1761417
35.921963 14.93533 9.0930786
36.108147 14.832979 9.1523008
35.451385 15.247924 9.0465384
35.622154 15.150071 9.1303215
35.796093 15.046474 9.1509733
35.174057 15.459724 9.1157846
35.366867 15.334702 9.1511021
34.889763 15.644294 9.1235294
35.062069 15.539526 9.1471233
34.432922 15.941095 9.0650072
34.140469 16.155094 9.1184607
34.319759 16.045229 9.150713
37.746574 13.730715 9.3525715
37.812817 13.704558 9.3643141
37.438499 13.942308 9.404295
37.60656 13.83655 9.3728542
37.125782 14.158834 9.3923817
37.305012 14.048577 9.3522272
36.678375 14.45196 9.4015656
36.879253 14.322776 9.3662729
36.231133 14.690025 9.4469585
36.353745 14.659505 9.3839579
36.582375 14.532375 9.3928146
35.693748 14.9615 9.4866257
35.910591 14.902556 9.4310589
36.089684 14.839308 9.3842869
35.43214 15.184997 9.463233
35.613613 15.143931 9.3812008
35.817696 15.045203 9.3736153
34.930298 15.4809 9.4692993
35.128479 15.427063 9.428092
35.340248 15.32929 9.3852844
34.637379 15.709571 9.4528751
34.870163 15.627364 9.3786583
35.066544 15.543427 9.3384953
34.216705 15.965458 9.4525414
34.421303 15.905936 9.3987236
34.628967 15.820238 9.3535118
34.33815 16.031233 9.3211565
37.16127 13.929502 9.6501751
37.365448 13.848796 9.589859
37.59613 13.787727 9.5291424
36.731667 14.232166 9.6248341
37.109158 14.072019 9.5460882
36.400993 14.447432 9.6247311
36.803001 14.319 9.5139999
35.959503 14.715166 9.6375008
36.140472 14.638715 9.6168861
36.347118 14.552686 9.5462532
35.658031 14.937233 9.5999069
35.844353 14.841557 9.6003103
35.207443 15.238766 9.5978098
35.373848 15.134171 9.5962725
35.561146 15.025313 9.5674801
34.92038 15.424954 9.5911818
35.087688 15.335734 9.5848074
34.470253 15.72225 9.60075
34.623177 15.63351 9.5821609
34.166122 15.937257 9.5657158
34.365662 15.820129 9.5680695
34.080227 16.023819 9.5259848
