# .PCD v0.7 - Point Cloud Data file format
VERSION 0.7
FIELDS x y z
SIZE 4 4 4
TYPE F F F
COUNT 1 1 1
WIDTH 72
HEIGHT 1
VIEWPOINT -18.2321 96.2205 -1.35163 -0.354149 -0.00701479 0.0211809 0.934923
POINTS 72
DATA ascii
-52.033169 7.2824583 -1.612625
-52.30043 7.1724834 -1.3538334
-52.178864 7.2274704 -1.37325
-52.033463 7.2962084 -1.3471251
-51.878716 7.3666196 -1.3720714
-51.680527 7.4623609 -1.2992224
-52.33205 7.1660552 -1.1241001
-52.207668 7.2243333 -1.1471667
-52.076878 7.2837148 -1.1356905
-51.882385 7.3767829 -1.1252334
-51.73875 7.4393749 -1.1559999
-51.587997 7.5085001 -1.221
-52.340244 7.1626034 -0.85639584
-52.156307 7.2386947 -0.84772223
-52.040428 7.2938004 -0.82196677
-51.853279 7.3802214 -0.8611334
-51.702057 7.471611 -0.81977779
-51.618416 7.513 -0.8033334
-52.306202 7.1879997 -0.63370007
-52.234112 7.2199445 -0.64352775
-52.101906 7.2930002 -0.6075834
-51.876312 7.3936305 -0.63690001
-51.705338 7.4760003 -0.58166671
-51.597919 7.5295839 -0.58775002
-52.338985 7.1960559 -0.36842594
-52.247002 7.2309999 -0.289
-52.089264 7.2991867 -0.39160559
-51.864269 7.4039721 -0.37087962
-51.715103 7.4824004 -0.4138
-51.607956 7.53125 -0.40595835
-52.348671 7.2013335 -0.10550001
-52.245667 7.2440004 -0.039666668
-52.100655 7.3055124 -0.10981251
-51.861919 7.4227972 -0.10059762
-51.626637 7.5392327 -0.12256667
-52.334423 7.2109251 0.088008337
-52.13858 7.3060441 0.14083958
-51.901665 7.4156904 0.14591458
-51.736328 7.4926672 0.039999999
-51.617134 7.5558829 0.12683335
-52.378281 7.2189255 0.37972501
-52.265007 7.2533331 0.34266669
-52.135197 7.3262081 0.38640282
-51.859642 7.4522223 0.36600927
-51.644386 7.5555625 0.36054167
-52.357567 7.2318335 0.63323337
-52.257336 7.2720003 0.64300001
-52.155869 7.3290439 0.6075688
-51.885296 7.4544282 0.60943615
-51.771381 7.5117326 0.68584996
-51.646679 7.5627809 0.59393996
-52.409115 7.2296119 0.81894445
-52.292 7.2704582 0.86862504
-52.126419 7.351882 0.88035178
-51.89146 7.4556899 0.86669999
-51.775776 7.5145555 0.9208889
-51.594158 7.5936222 0.85356665
-52.367481 7.2648335 1.1429167
-52.13076 7.37644 1.1350455
-51.925426 7.4688053 1.1354861
-51.82196 7.5197916 1.1503334
-51.655037 7.592875 1.1245542
-52.337753 7.2884727 1.4106666
-52.10022 7.3991194 1.4093333
-51.947128 7.4722004 1.4173501
-51.801109 7.5395837 1.4095626
-51.645916 7.6098752 1.4099584
-52.111794 7.4021044 1.6348333
-51.962147 7.4730668 1.6492444
-51.845886 7.5276666 1.6449167
-51.664696 7.6096058 1.6527878
-52.112499 7.402 1.7535
