# .PCD v0.7 - Point Cloud Data file format
VERSION 0.7
FIELDS x y z
SIZE 4 4 4
TYPE F F F
COUNT 1 1 1
WIDTH 137
HEIGHT 1
VIEWPOINT -18.2321 96.2205 -1.35163 -0.354149 -0.00701479 0.0211809 0.934923
POINTS 137
DATA ascii
-51.571762 -2.8884504 6.609848
-53.313038 -5.3881907 6.8824701
-52.006668 -3.4872501 6.9015832
-51.762802 -3.1407537 6.9022222
-51.695969 -3.0490277 6.8526382
-51.588528 -2.8976419 6.8673582
-51.411324 -2.6440458 6.8707418
-51.274242 -2.4485223 6.8540001
-51.20055 -2.3405669 6.8744497
-51.074478 -2.1600795 6.8509912
-50.980667 -2.02 6.9018335
-50.877754 -1.8753821 6.8616776
-50.778835 -1.7320001 6.9006672
-50.691185 -1.6091958 6.8502774
-50.557774 -1.4152431 6.8856311
-50.472603 -1.2966667 6.8396215
-50.337349 -1.0965477 6.9126539
-50.238251 -0.95616663 6.8978338
-53.31823 -5.3795128 7.1332793
-53.235912 -5.2602859 7.1513214
-53.126587 -5.1050434 7.1130857
-53.025917 -4.9569583 7.1017923
-52.932049 -4.8212843 7.1314001
-52.825989 -4.6681738 7.1084661
-52.739231 -4.5410266 7.1467834
-52.617023 -4.3684173 7.1236424
-52.530418 -4.2442503 7.1020007
-52.414288 -4.0744596 7.1395512
-52.296829 -3.9072006 7.1304636
-52.224834 -3.7995002 7.1453891
-52.11982 -3.6479225 7.1177554
-52.011333 -3.4881113 7.1456666
-51.921104 -3.3595974 7.1211982
-51.782307 -3.1593335 7.1467223
-51.702339 -3.0466332 7.1273003
-51.571995 -2.8578811 7.1362247
-51.418941 -2.6400948 7.122467
-51.290882 -2.45331 7.1358199
-51.214146 -2.3452978 7.0945597
-51.088383 -2.1662548 7.1217132
-50.988499 -2.0207779 7.1449447
-50.872353 -1.8535047 7.1477847
-50.787388 -1.7330557 7.1427779
-50.704739 -1.6150862 7.128736
-50.561314 -1.4087095 7.1220574
-50.459606 -1.2616647 7.1458621
-50.348492 -1.1006639 7.1479373
-50.24197 -0.94549417 7.1519489
-53.335583 -5.3942809 7.3816428
-53.244392 -5.2600832 7.3991113
-53.11364 -5.0699348 7.3780355
-53.034527 -4.9583559 7.3521557
-52.932808 -4.8098383 7.3696098
-52.834408 -4.6698341 7.338748
-52.74485 -4.5380139 7.3957777
-52.632336 -4.3781438 7.3643894
-52.531002 -4.2314587 7.3748546
-52.432564 -4.0885406 7.3816066
-52.29998 -3.8967366 7.4013486
-52.209751 -3.7660832 7.3859167
-52.109982 -3.6244752 7.3615294
-52.019333 -3.4895 7.3941669
-51.913685 -3.3395188 7.3637681
-51.782185 -3.1497338 7.3682494
-51.714233 -3.0523877 7.3418002
-51.580387 -2.8588209 7.3915391
-51.430939 -2.6459525 7.3786511
-51.298168 -2.4548001 7.3703675
-51.210876 -2.3307383 7.3480568
-51.072147 -2.1306 7.3634329
-50.996502 -2.0218334 7.3941669
-50.882755 -1.85701 7.4123511
-50.780518 -1.711125 7.4166665
-50.686092 -1.5780338 7.3496938
-50.581959 -1.4263917 7.3632898
-50.469788 -1.2647847 7.4002018
-50.356529 -1.1008375 7.4046578
-50.244442 -0.9410001 7.3999443
-53.318604 -5.3549604 7.6316032
-53.145306 -5.1036 7.6414781
-53.020252 -4.923233 7.6351342
-52.946949 -4.8177762 7.6261735
-52.829113 -4.6472931 7.6367283
-52.643593 -4.3822083 7.6247339
-52.525917 -4.2122002 7.6294503
-52.440472 -4.0885415 7.6132774
-52.311874 -3.902271 7.6385627
-52.21278 -3.7601669 7.6449447
-52.127102 -3.6377153 7.5975418
-52.01767 -3.4755554 7.6526947
-51.927158 -3.3490946 7.5960464
-51.790871 -3.1511402 7.6280403
-51.719833 -3.0525835 7.5990005
-51.584427 -2.8549471 7.6146674
-51.438648 -2.6471524 7.6158271
-51.301666 -2.4484668 7.6295004
-51.221355 -2.3327084 7.6495633
-51.084827 -2.1370547 7.6488094
-50.897068 -1.8681265 7.626152
-50.776253 -1.6979445 7.5933332
-50.697876 -1.5827392 7.6172767
-50.56847 -1.3957766 7.6340637
-50.469429 -1.2578571 7.5410008
-50.377586 -1.1238779 7.5959873
-50.256641 -0.94473815 7.693881
-50.247623 -0.93687505 7.5570006
-53.164753 -5.1212568 7.8604999
-53.035851 -4.9354048 7.8665328
-52.940655 -4.7968602 7.8717737
-52.816795 -4.6196761 7.8777051
-52.653854 -4.3867173 7.8448596
-52.538689 -4.2186003 7.877975
-52.435059 -4.0763612 7.8822083
-52.321442 -3.8908615 7.8866224
-52.220337 -3.7616668 7.8950005
-52.135536 -3.6389956 7.8492641
-52.054337 -3.4482918 7.9492922
-51.929729 -3.3400607 7.8469911
-51.818687 -3.1438541 7.9078956
-51.727303 -3.0535002 7.8035002
-51.614731 -2.8675032 7.8666968
-51.239552 -2.3594444 7.8484445
-51.091164 -2.1285501 7.8907661
-50.407665 -1.1068031 7.8321071
-53.192062 -5.0857496 8.0603752
-52.969002 -4.8424997 8.0074997
-53.001999 -4.6030002 8.1160002
-52.89415 -4.6262636 8.0730553
-52.678608 -4.3212223 8.046278
-52.473003 -4.0270004 8.0196667
-52.347111 -3.8848054 8.0760145
-52.223373 -3.7580001 8.0908747
-52.147816 -3.6454167 8.1350412
-52.322659 -3.8501365 8.3471756
-51.109783 -2.1050084 8.366292
-51.135681 -2.1134701 8.625453
-51.105373 -2.0743201 8.8713207
