# .PCD v0.7 - Point Cloud Data file format
VERSION 0.7
FIELDS x y z
SIZE 4 4 4
TYPE F F F
COUNT 1 1 1
WIDTH 84
HEIGHT 1
VIEWPOINT -18.2321 96.2205 -1.35163 -0.354149 -0.00701479 0.0211809 0.934923
POINTS 84
DATA ascii
23.3955 74.886749 37.644249
23.564249 74.867584 37.661835
23.691299 74.64769 37.837452
23.803583 74.654167 37.882751
23.34354 74.944458 37.867592
23.565252 74.891083 37.875916
24.355877 74.974045 37.862
23.7178 74.719101 38.127403
23.80625 74.738998 38.09425
23.098959 74.936432 38.143444
23.350361 74.944603 38.145523
23.617596 74.900154 38.113239
23.948166 74.915001 38.075165
24.116526 74.978188 38.162762
24.374607 74.968887 38.117714
23.7194 74.7323 38.371101
23.806 74.744003 38.317001
23.091898 74.953018 38.402809
23.357153 74.965904 38.398972
23.612667 74.911301 38.366478
23.898499 74.894241 38.350601
24.09 74.989624 38.395668
24.362696 74.9897 38.373806
24.203751 75.006744 38.471748
24.339499 75.005829 38.418835
23.742834 74.737999 38.642666
23.103184 74.965965 38.633202
23.355677 74.97506 38.644707
23.628052 74.886604 38.62645
23.887041 74.874496 38.606293
24.138584 74.992668 38.606331
24.433332 74.997162 38.633499
23.650999 75.012001 38.737
24.096666 75.006996 38.700001
24.349585 75.006721 38.596031
23.105528 74.969666 38.868114
23.36845 74.98835 38.906746
23.659431 74.85598 38.882771
23.891584 74.90139 38.853413
24.228001 74.999001 38.758999
23.587999 75 38.787998
23.999001 75.002998 38.883999
24.110203 75.011398 38.866867
24.349667 75.014404 38.854446
23.077597 74.977196 39.122448
23.347336 74.988998 39.103836
23.669771 74.846222 39.133274
23.834 74.859329 39.135998
23.245001 75.009003 39.191002
23.459 75.003494 39.099998
23.583708 75.006004 39.144459
23.949167 75.012665 39.097168
24.099634 75.017136 39.1339
24.34712 75.022705 39.121143
23.094501 74.985397 39.377602
23.294334 74.994667 39.352001
23.693998 74.798073 39.376499
23.8405 74.888 39.395752
23.214874 75.007751 39.359497
23.386095 75.011436 39.366402
23.611649 75.015198 39.369701
23.942167 75.03183 39.356167
24.076084 75.029434 39.369335
24.350086 75.03775 39.363293
23.061167 74.990334 39.590225
23.690094 74.811028 39.608143
23.854 74.936996 39.609497
23.130001 75.013084 39.677708
23.348188 75.018677 39.637249
23.615452 75.0364 39.62775
23.957001 75.038254 39.597
24.107784 75.046883 39.6273
24.351278 75.048431 39.647888
23.837334 74.895164 39.864334
23.094812 75.021057 39.903252
23.372263 75.030586 39.885582
23.926001 75.040375 39.85725
24.082035 75.063522 39.869434
24.34964 75.054115 39.898029
23.116146 75.031998 40.157383
24.09482 75.072639 40.144669
24.353428 75.0746 40.147038
23.146791 75.048958 40.400166
24.353781 75.083588 40.392338
