# .PCD v0.7 - Point Cloud Data file format
VERSION 0.7
FIELDS x y z
SIZE 4 4 4
TYPE F F F
COUNT 1 1 1
WIDTH 275
HEIGHT 1
VIEWPOINT -18.2321 96.2205 -1.35163 -0.354149 -0.00701479 0.0211809 0.934923
POINTS 275
DATA ascii
-107.30033 -67.929329 3.6566668
-107.11933 -67.717331 3.6483333
-106.92667 -67.493668 3.6389999
-106.7305 -67.257507 3.7490001
-107.325 -67.945 3.8800001
-107.1385 -67.7295 3.869
-106.9565 -67.512497 3.8832502
-106.743 -67.265503 3.9245
-106.56234 -67.054665 3.8763332
-107.34 -67.954498 4.0807495
-107.176 -67.753998 4.1810002
-107.15849 -67.742493 4.0475001
-106.9695 -67.520996 4.1254997
-106.76366 -67.278328 4.1466665
-106.59033 -67.072334 4.140667
-107.37667 -67.977997 4.3696666
-107.18867 -67.761665 4.3600001
-107.003 -67.541 4.4359999
-106.9965 -67.537506 4.3039999
-106.7815 -67.290497 4.3684998
-106.61024 -67.085251 4.38375
-107.412 -68.000999 4.7270002
-107.3945 -67.988998 4.5924997
-107.21767 -67.778999 4.6266665
-107.02149 -67.553673 4.6288333
-106.80701 -67.306335 4.5896668
-106.63 -67.097504 4.6269999
-107.24 -67.793999 4.8049998
-107.02876 -67.609505 4.9264998
-106.84367 -67.329659 4.8556666
-106.658 -67.115334 4.8486667
-106.8625 -67.341995 5.0770001
-106.68967 -67.135666 5.1139998
-106.47866 -66.894997 5.1186662
-106.89417 -67.362 5.373333
-106.716 -67.152336 5.3796668
-106.5085 -66.914001 5.4274998
-106.488 -66.901001 5.2950001
-106.92334 -67.380669 5.6546664
-106.76 -67.181 5.6894999
-106.738 -67.166 5.5580001
-106.53867 -66.932991 5.6489997
-106.32934 -66.691673 5.6313338
-107.04034 -67.566338 5.8536668
-106.95 -67.397507 5.8769999
-106.7675 -67.185501 5.8674998
-106.563 -66.947998 5.8710003
-106.35534 -66.708328 5.8956666
-107.03349 -67.5625 6.0745001
-106.9705 -67.410995 6.0767498
-106.787 -67.19825 6.1125002
-106.5845 -66.96225 6.1137505
-106.375 -66.720505 6.1160002
-107.314 -67.842003 6.4050002
-107.227 -67.787003 6.4889998
-107.02533 -67.557831 6.3698335
-107.0085 -67.434998 6.4105
-106.997 -67.428001 6.277
-106.80866 -67.212006 6.3560004
-106.61333 -66.980995 6.3570004
-106.39933 -66.736 6.3369999
-107.409 -67.934998 6.5906663
-107.1635 -67.6455 6.6155
-107.019 -67.441994 6.6323333
-106.83701 -67.230499 6.5770001
-106.63633 -66.995667 6.6240005
-106.4365 -66.760002 6.6465001
-106.34 -66.651505 6.5955
-107.45533 -67.931999 6.8586669
-107.2625 -67.708496 6.888
-107.247 -67.697998 6.7519999
-107.04449 -67.457504 6.8779998
-106.888 -67.262001 6.98
-106.86224 -67.24575 6.8224998
-106.664 -67.013 6.9117498
-107.28133 -67.719994 7.1100001
-107.0675 -67.473 7.1230001
-106.89633 -67.267998 7.1560001
-106.69633 -67.033333 7.1563334
-106.47634 -66.785995 7.1340003
-107.33 -67.751999 7.4699998
-107.314 -67.740997 7.3334999
-107.116 -67.502998 7.4359999
-107.093 -67.488998 7.302
-106.918 -67.281502 7.3780003
-106.718 -67.046997 7.3785
-106.513 -66.808746 7.3785
-107.34333 -67.760002 7.6469998
-107.14166 -67.519997 7.6304994
-106.943 -67.297333 7.6019998
-106.73849 -67.060249 7.5780001
-106.529 -66.819 7.5770001
-107.3665 -67.775002 7.8724999
-107.1475 -67.524002 7.9254999
-106.98167 -67.322334 7.8706665
-106.76099 -67.075005 7.8676667
-106.55833 -66.837669 7.8433328
-107.398 -67.794998 8.1187496
-107.19167 -67.55233 8.151
-107.011 -67.341003 8.1824999
-106.991 -67.328003 8.0480003
-106.79566 -67.096992 8.1356668
-106.5925 -66.859673 8.1246672
-107.42133 -67.809998 8.3653326
-107.2145 -67.567505 8.3765001
-107.02899 -67.352249 8.3832502
-106.809 -67.105995 8.3795004
-106.618 -66.876495 8.4209995
-106.43467 -66.665665 8.3590002
-107.4405 -67.822502 8.5900002
-107.2325 -67.579247 8.6217499
-107.061 -67.373505 8.6294994
-106.84399 -67.128006 8.6245003
-106.62801 -66.882996 8.599
-106.47134 -66.689003 8.6260004
-107.25833 -67.595665 8.8673334
-107.07367 -67.38166 8.8516665
-106.869 -67.144997 8.8480005
-106.661 -66.903999 8.8659992
-106.4965 -66.70475 8.9137497
-107.28201 -67.611 9.1360006
-107.10266 -67.40033 9.1213331
-106.89249 -67.159828 9.1308336
-106.68201 -66.917252 9.1107502
-106.52033 -66.720329 9.1593332
-107.31 -67.629501 9.3832493
-107.136 -67.421997 9.4124994
-106.92751 -67.182495 9.4295006
-106.71334 -66.937004 9.3563337
-106.545 -66.736 9.3824997
-106.354 -66.509003 9.4969997
-107.34 -67.648499 9.6299992
-107.167 -67.442009 9.6593332
-106.95034 -67.196999 9.6533327
-106.75349 -66.962997 9.6690006
-106.658 -66.854752 9.5922499
-106.566 -66.75 9.5150003
-106.37399 -66.522003 9.6324997
-107.36834 -67.666664 9.8566666
-107.1835 -67.453003 9.8829994
-106.9755 -67.212502 9.8775005
-106.76925 -66.973495 9.915
-106.59367 -66.767662 9.8713331
-106.38967 -66.532005 9.8546667
-107.40232 -67.688332 10.127334
-107.2045 -67.466499 10.084749
-106.98775 -67.221245 10.077499
-106.805 -66.996002 10.117001
-106.629 -66.790337 10.139333
-107.37234 -67.637665 10.421
-107.22501 -67.479996 10.377001
-107.0165 -67.239502 10.368999
-106.8145 -67.002502 10.3835
-106.795 -66.989998 10.25
-106.64101 -66.798004 10.405
-107.14951 -67.37825 10.6425
-107.028 -67.247002 10.546
-106.83675 -67.016998 10.585501
-106.692 -66.830498 10.6325
-106.47833 -66.589325 10.656333
-107.07275 -67.276001 10.886499
-106.88434 -67.047333 10.877999
-106.69334 -66.832001 10.853667
-106.507 -66.608002 10.922
-106.487 -66.595001 10.835
-107.084 -67.283997 11.089
-106.903 -67.059494 11.1465
-106.7365 -66.859497 11.1235
-106.512 -66.611 11.102
-107.11967 -67.306335 11.357666
-106.918 -67.07 11.371
-106.767 -66.879997 11.48
-106.737 -66.860504 11.346001
-106.54867 -66.634331 11.370667
-107.15301 -67.327995 11.628001
-106.96001 -67.096497 11.6195
-106.77334 -66.884003 11.659
-106.58267 -66.655998 11.639667
-107.38525 -67.583748 11.88675
-107.18 -67.345253 11.91975
-106.96867 -67.102669 11.864667
-106.80251 -66.902496 11.884501
-106.58775 -66.659744 11.882999
-107.4315 -67.612999 12.1385
-107.1965 -67.356499 12.1235
-107.011 -67.129501 12.1805
-106.98 -67.110001 12.042
-106.8205 -66.914505 12.08675
-106.633 -66.688995 12.131001
-107.44567 -67.622673 12.363
-107.23 -67.377998 12.350333
-107.0275 -67.140747 12.38175
-106.84067 -66.928001 12.377335
-106.64867 -66.699005 12.355
-107.25634 -67.395332 12.620999
-107.0505 -67.154999 12.629
-106.87534 -66.949669 12.647667
-107.284 -67.414001 12.91475
-107.06699 -67.166328 12.855667
-106.904 -66.968002 12.8735
-107.3065 -67.427994 13.1185
-107.103 -67.189667 13.127334
-106.92375 -66.981247 13.12
-106.61826 -66.628494 13.1005
-107.32967 -67.442665 13.344334
-107.12766 -67.205666 13.397667
-106.9565 -67.002998 13.415501
-106.847 -66.880493 13.356
-106.7385 -66.757996 13.297501
-106.54367 -66.528999 13.373668
-107.3505 -67.456497 13.570999
-107.1525 -67.222 13.625
-106.98467 -67.020668 13.640999
-106.77467 -66.781334 13.627833
-106.57367 -66.54834 13.644
-107.382 -67.477333 13.874333
-107.133 -67.186249 13.86525
-106.996 -67.028 13.819
-106.8085 -66.803497 13.929501
-106.597 -66.563995 13.868
-107.407 -67.4935 14.115
-107.2045 -67.2565 14.1675
-107.08067 -67.114326 14.085999
-106.826 -66.815002 14.154332
-106.623 -66.580505 14.11625
-107.42734 -67.506996 14.342334
-107.256 -67.289001 14.488
-107.234 -67.274994 14.351
-107.05733 -67.068336 14.363334
-106.85851 -66.835999 14.3815
-106.646 -66.595665 14.364334
-107.458 -67.527 14.570499
-107.261 -67.293503 14.623
-107.078 -67.082001 14.634
-106.88049 -66.85025 14.585
-106.69334 -66.625664 14.637668
-107.286 -67.309334 14.849999
-107.1065 -67.100502 14.885
-106.92167 -66.876335 14.879666
-106.72275 -66.645004 14.88625
-107.319 -67.331001 15.123
-107.1195 -67.110001 15.1335
-106.93333 -66.884331 15.149001
-106.737 -66.654999 15.1335
-106.55733 -66.443336 15.139667
-107.33501 -67.341499 15.41625
-107.161 -67.136665 15.362666
-106.961 -66.902 15.3765
-106.76566 -66.673332 15.360001
-106.57899 -66.457001 15.364
-107.35001 -67.351501 15.6215
-107.186 -67.153008 15.634666
-106.983 -66.916748 15.581751
-106.78234 -66.684669 15.629666
-106.60001 -66.471497 15.6125
-107.389 -67.376663 15.852
-107.2145 -67.171997 15.863
-107.014 -66.937325 15.877
-106.799 -66.695 15.813
-106.645 -66.500999 15.953
-106.62601 -66.487999 15.8165
-107.41766 -67.395332 16.125666
-107.24025 -67.188248 16.113251
-107.04534 -66.957664 16.149334
-106.836 -66.720001 16.129499
-106.662 -66.512001 16.178501
-106.644 -66.5 16.042999
-107.44225 -67.411751 16.421749
-107.26534 -67.205002 16.365334
-107.0625 -66.968506 16.375999
-106.865 -66.738998 16.357
-106.688 -66.528503 16.384251
-107.28733 -67.219002 16.638
-107.078 -66.9795 16.58025
-106.878 -66.747002 16.627668
