# .PCD v0.7 - Point Cloud Data file format
VERSION 0.7
FIELDS x y z
SIZE 4 4 4
TYPE F F F
COUNT 1 1 1
WIDTH 124
HEIGHT 1
VIEWPOINT -18.2321 96.2205 -1.35163 -0.354149 -0.00701479 0.0211809 0.934923
POINTS 124
DATA ascii
30.342499 -20.005501 2.4875
30.622135 -19.816156 2.467427
30.859339 -19.619776 2.3994524
31.092049 -19.58009 2.4747572
31.254 -19.532249 2.4875002
30.912024 -19.442623 2.3380234
31.354193 -19.324884 2.3998575
31.587133 -19.31815 2.4661417
31.755802 -19.253799 2.4798
31.36462 -19.180508 2.3231392
31.63937 -19.10747 2.3520818
31.8827 -19.110733 2.443675
32.078014 -19.07 2.4731905
31.6553 -18.9813 2.3085999
31.87697 -18.894039 2.3211207
32.112968 -18.865553 2.3814573
32.356747 -18.860577 2.44539
32.541187 -18.792374 2.461375
30.816668 -20.276167 2.7208333
30.362539 -20.143194 2.5590053
30.885775 -20.13517 2.6702502
31.137583 -20.07555 2.701
31.35767 -20.050667 2.7423334
30.485001 -19.992001 2.513
30.620737 -19.936279 2.5254445
30.87244 -19.873964 2.5468478
31.101484 -19.871088 2.6019087
31.353344 -19.880539 2.6619701
31.578424 -19.839523 2.7000723
31.828438 -19.786188 2.7314377
31.151606 -19.676727 2.5367832
31.396139 -19.627359 2.567915
31.650314 -19.612345 2.6167085
31.878889 -19.632074 2.6776297
32.126556 -19.573944 2.7075555
32.311295 -19.554417 2.7359581
31.403126 -19.473499 2.50475
31.643063 -19.434013 2.5328002
31.875748 -19.363626 2.5617831
32.109821 -19.368422 2.6086693
32.375145 -19.369238 2.6737552
32.625126 -19.334291 2.7117083
32.891342 -19.255056 2.7436287
31.8915 -19.217501 2.5044999
32.168213 -19.143604 2.5289683
32.384724 -19.139498 2.5748889
32.628765 -19.134182 2.627845
32.856628 -19.164249 2.6963749
33.133202 -19.077749 2.7140002
32.452198 -18.956402 2.5174003
32.593018 -18.906605 2.5294375
32.822361 -18.892168 2.5655553
33.028 -18.985001 2.6459999
31.350082 -20.554916 2.9772501
30.693666 -20.395998 2.7955835
30.875532 -20.385679 2.7901514
31.112106 -20.373964 2.8383927
31.371105 -20.367285 2.8951981
31.640373 -20.407623 2.9689374
31.85775 -20.327528 2.987361
31.200201 -20.194401 2.7715716
31.403111 -20.117956 2.7948098
31.607927 -20.102629 2.8275464
31.879854 -20.144503 2.909971
32.120399 -20.107409 2.9545126
32.345749 -20.03425 2.97575
31.713377 -19.948736 2.7868474
31.902502 -19.897203 2.8044603
32.134796 -19.869614 2.8529966
32.38887 -19.853899 2.8958523
32.621357 -19.844389 2.9528296
32.777374 -19.78075 2.9612498
32.149097 -19.705416 2.7723
32.406425 -19.636402 2.8040357
32.60231 -19.626083 2.8478096
32.888851 -19.6206 2.9144738
33.122883 -19.592976 2.9600167
33.287003 -19.568001 2.9714999
32.647137 -19.444138 2.775389
32.85043 -19.397953 2.8078046
33.147781 -19.298779 2.81916
33.379616 -19.412094 2.9294846
33.607746 -19.36257 2.965277
33.214222 -19.193779 2.7864444
33.301872 -19.210751 2.8213749
31.639029 -20.53269 3.093648
31.463333 -20.48875 3.21175
31.637138 -20.437649 3.155751
31.858501 -20.329031 3.126152
32.049549 -20.283852 3.0543499
31.968634 -20.207666 3.2043335
32.126202 -20.181005 3.1502097
32.326298 -20.079695 3.1265509
32.55994 -20.019056 3.0796669
32.436893 -19.975134 3.14555
32.632412 -19.892195 3.1353035
32.829609 -19.822643 3.1100779
32.945557 -19.705462 3.1463566
33.128815 -19.631548 3.1321681
33.331345 -19.550238 3.1056209
33.394417 -19.437471 3.1274107
33.602604 -19.358759 3.1371281
33.763 -19.352667 3.2236667
31.894501 -20.636471 3.4000278
32.117714 -20.543364 3.4074225
31.870003 -20.409613 3.2825279
32.153564 -20.34178 3.3540666
32.345081 -20.398306 3.3964722
32.542747 -20.305 3.4210835
32.197979 -20.243471 3.3328655
32.400555 -20.162182 3.298111
32.644997 -20.13937 3.3495278
32.880123 -20.112097 3.4041336
33.044582 -20.028917 3.3976667
32.71381 -19.954023 3.2769763
32.946331 -19.877001 3.2931669
33.120598 -19.854097 3.3302298
33.375725 -19.835041 3.3806198
33.209 -19.743 3.279
33.46217 -19.696167 3.3351667
33.604729 -19.641521 3.3484592
33.735001 -19.452002 3.2666669
32.203499 -20.304501 3.5352499
32.226166 -20.241167 3.5230002
