# .PCD v0.7 - Point Cloud Data file format
VERSION 0.7
FIELDS x y z
SIZE 4 4 4
TYPE F F F
COUNT 1 1 1
WIDTH 80
HEIGHT 1
VIEWPOINT -18.2321 96.2205 -1.35163 -0.354149 -0.00701479 0.0211809 0.934923
POINTS 80
DATA ascii
98.981003 -84.429001 19.688999
99.015503 -84.334503 19.6705
99.054001 -84.242996 19.731001
98.682602 -85.638596 19.8866
98.781006 -85.5755 19.855999
98.811752 -85.392502 19.876499
98.832199 -85.0942 19.8556
98.879494 -84.910004 19.869749
98.837585 -84.432167 19.849417
98.931 -84.199501 19.796501
99.039001 -83.763 19.985001
98.698997 -85.677406 20.114399
98.79966 -85.590332 20.140333
98.828674 -85.022667 20.133333
98.887665 -84.946663 20.157999
98.806 -84.510498 20.184
98.921005 -84.445999 20.118198
99.106491 -83.669998 20.163
99.156998 -83.387001 20.225
98.61525 -86.158508 20.396999
98.754997 -86.161003 20.35
98.642998 -85.8815 20.424
98.711502 -85.643501 20.362
98.788002 -85.578995 20.3715
98.808502 -85.352501 20.3585
98.816002 -85.011002 20.410999
98.867996 -84.929504 20.387501
98.990997 -83.662506 20.297001
99.067993 -83.707664 20.422333
99.031006 -83.4505 20.269501
98.484001 -86.901001 20.644001
98.618759 -86.221504 20.563751
98.678993 -85.651337 20.657
98.828003 -85.550507 20.67
98.811996 -85.007004 20.5
98.861 -84.922997 20.525
99.053574 -83.686852 20.649429
99.100494 -83.393501 20.7145
98.429001 -87.158005 20.987499
98.456505 -86.844498 20.894749
98.539001 -86.700996 20.948999
98.619995 -86.341003 20.856499
98.643997 -86.241501 20.943501
98.649002 -85.821999 20.896
98.660004 -85.621246 20.856249
98.776001 -85.565002 20.976
98.847 -85.119751 20.859751
99.065002 -83.722244 20.869751
98.456497 -86.875 21.1075
98.592255 -86.80825 21.116751
98.620003 -86.279999 21.083
98.647499 -86.184006 21.130501
98.778999 -86.178001 21.101999
98.673332 -85.643837 21.154501
98.785004 -85.572998 21.117001
98.476997 -87.072006 21.459999
98.474503 -86.889999 21.299999
98.554001 -86.834999 21.403999
98.598755 -86.380745 21.400501
98.666756 -86.139999 21.317749
98.683502 -85.912506 21.3685
98.441002 -85.514999 21.4
98.696999 -85.644798 21.3466
98.793999 -85.580002 21.261
98.838997 -85.382004 21.326
98.547501 -86.859497 21.662251
98.681 -85.611 21.618
98.750999 -85.541 21.627001
98.845001 -85.499001 21.528999
98.885002 -85.172997 21.729
98.539001 -86.82 21.825001
98.694504 -85.621498 21.946999
98.755997 -85.543999 21.908001
98.746002 -85.412003 21.787001
98.757004 -85.308998 21.778
98.695 -85.621002 22.183001
98.813004 -85.592003 22.202
98.68 -85.842003 22.306999
98.68988 -85.624245 22.375
98.803001 -85.583 22.386
