# .PCD v0.7 - Point Cloud Data file format
VERSION 0.7
FIELDS x y z
SIZE 4 4 4
TYPE F F F
COUNT 1 1 1
WIDTH 273
HEIGHT 1
VIEWPOINT -18.2321 96.2205 -1.35163 -0.354149 -0.00701479 0.0211809 0.934923
POINTS 273
DATA ascii
3.3128645 -34.348473 9.8965893
3.4312077 -34.150978 9.8754902
3.5192919 -34.075939 9.9193964
3.6460898 -33.866562 9.8864441
3.5633762 -34.098854 10.159267
3.4065018 -34.368813 10.346559
3.5192001 -34.255199 10.453101
3.4905 -34.182999 10.299
3.5820961 -34.115276 10.365989
3.4461734 -34.364891 10.646192
3.5892122 -34.142521 10.64882
3.4543667 -34.325081 10.869608
3.5834072 -34.136429 10.897739
3.4532206 -34.310318 11.150811
3.5690844 -34.144398 11.119824
3.4482501 -34.30497 11.396439
3.5678203 -34.131355 11.371196
3.4436581 -34.297752 11.626814
3.5616531 -34.125969 11.617435
3.4428513 -34.284409 11.870193
3.5744748 -34.093586 11.850711
3.4174445 -34.304165 12.139806
3.4593444 -34.245113 12.098413
3.5656662 -34.089676 12.135694
3.4718332 -34.212421 12.354808
3.5748065 -34.062923 12.378043
3.45416 -34.217972 12.6291
3.5555446 -34.075108 12.614025
6.6303635 -29.622009 12.622818
6.7443638 -29.449963 12.699831
3.398 -34.280502 12.89325
3.4543521 -34.201004 12.871315
3.5308292 -34.092857 12.869291
3.6648717 -33.901669 12.876961
6.6007142 -29.648752 12.871244
6.7354074 -29.451065 12.900437
6.8185444 -29.331411 12.86363
3.3985555 -34.263279 13.147834
3.4444687 -34.198776 13.12941
3.5209365 -34.089592 13.128166
3.647943 -33.908989 13.129178
6.5908184 -29.645653 13.13919
6.7102633 -29.473562 13.12525
6.812325 -29.325037 13.11316
3.3989999 -34.252251 13.3505
3.4372303 -34.193779 13.383217
3.5313089 -34.063171 13.342917
3.6559079 -33.884514 13.359859
6.5963616 -29.622459 13.377482
6.7122359 -29.454639 13.372702
6.8045783 -29.319921 13.376948
3.4253352 -34.198658 13.614895
3.5284171 -34.054466 13.595774
3.6429887 -33.887119 13.640054
6.5766439 -29.63575 13.647336
6.7050695 -29.450205 13.628654
6.786407 -29.332617 13.647785
3.438535 -34.163353 13.884026
3.5260305 -34.040867 13.851901
3.6350372 -33.882317 13.905487
6.592732 -29.598787 13.897986
6.6967101 -29.451904 13.870349
6.7872295 -29.317625 13.914897
3.4459836 -34.138298 14.137809
3.5180538 -34.034756 14.147988
3.6331565 -33.872169 14.140454
6.5903473 -29.588928 14.133739
6.6930108 -29.441347 14.146144
6.7736111 -29.324461 14.152541
3.4507155 -34.117523 14.401868
3.5175714 -34.023643 14.399858
3.6311634 -33.859726 14.400968
6.5850291 -29.584158 14.376815
6.7148185 -29.397989 14.378517
6.789875 -29.288126 14.394875
3.4441421 -34.115238 14.628415
3.5106001 -34.023926 14.5959
3.6147952 -33.871906 14.637997
6.5818491 -29.57748 14.620951
6.7029767 -29.402735 14.631872
6.7867503 -29.281208 14.602125
3.4494789 -34.094341 14.872154
3.5091944 -34.011055 14.846723
3.616663 -33.854538 14.871272
6.5775652 -29.573256 14.862855
6.6952424 -29.398438 14.911673
6.7810841 -29.277582 14.854375
3.4456806 -34.084652 15.126966
3.6067688 -33.854126 15.130841
6.5735235 -29.566038 15.13631
6.685739 -29.402632 15.122949
6.7780595 -29.267845 15.153847
6.860045 -29.15069 15.135659
3.4315464 -34.092216 15.373685
3.5823605 -33.876709 15.373335
6.5692477 -29.563152 15.374837
6.6924086 -29.381725 15.364194
6.772625 -29.264875 15.397417
3.4282379 -34.081654 15.649529
3.4892502 -33.994888 15.657501
3.5821862 -33.864407 15.621786
6.5548348 -29.611267 15.636405
6.6860385 -29.380951 15.620719
6.769053 -29.260452 15.650111
6.8588901 -29.131697 15.615509
3.4268315 -34.075939 15.893593
3.4901252 -33.98521 15.896376
3.5788984 -33.859058 15.86461
3.6889155 -33.70153 15.846329
6.5616827 -29.544996 15.894199
6.6568632 -29.408895 15.87133
6.7636213 -29.253223 15.900833
3.4393415 -34.051983 16.148409
3.4916668 -33.978249 16.097292
3.5713923 -33.863194 16.116072
3.6931882 -33.686058 16.168648
6.4728007 -29.545103 16.229
6.5422416 -29.537018 16.137991
6.6400776 -29.380402 16.147846
6.731967 -29.200567 16.235352
6.8334813 -29.112 16.131226
3.3839982 -34.074444 16.414938
3.4510798 -33.951645 16.382069
3.5604222 -33.837917 16.349432
3.6719193 -33.644962 16.402378
6.4009347 -29.621319 16.407307
6.5398889 -29.570608 16.384459
6.4309516 -29.467146 16.437735
6.6241484 -29.384119 16.398781
6.7396126 -29.24379 16.393631
3.3952246 -33.941971 16.661785
3.565465 -33.818169 16.579241
6.3138914 -29.555395 16.612192
6.4353309 -29.426188 16.60465
6.5724959 -29.346439 16.580124
6.6569076 -29.136841 16.653091
6.7745414 -29.058769 16.616995
3.372875 -33.888462 16.86355
3.5109999 -33.848 16.753
3.445622 -33.638855 16.888412
3.5821235 -33.608826 16.860664
6.3099437 -29.849182 16.883131
6.3948598 -29.600901 16.881737
6.508667 -29.522335 16.935499
6.4592505 -29.437603 16.790218
6.573175 -29.380421 16.880589
6.6553488 -29.15951 16.854546
3.4101059 -33.911747 17.126514
3.529 -33.79068 17.17127
3.497 -33.671001 17.049
5.679069 -30.645245 17.136753
5.9592252 -30.216669 17.150293
6.1897702 -29.899136 17.131283
6.2855239 -29.77968 17.082357
6.3775229 -29.625443 17.12484
6.5009999 -29.514999 17.016998
6.478817 -29.475468 17.108084
6.5545435 -29.355146 17.119822
6.6804094 -29.165483 17.138184
3.3884473 -33.871895 17.388514
3.4644432 -33.70293 17.470358
3.5657282 -33.627182 17.379816
3.681731 -33.429489 17.405754
3.7915936 -33.308662 17.331633
3.9000158 -33.133263 17.373289
3.9718184 -32.962093 17.450546
4.0948806 -32.856857 17.353992
4.1833854 -32.689064 17.406345
4.2834234 -32.583271 17.354385
4.3893909 -32.389885 17.396208
4.47645 -32.2145 17.4305
4.5967813 -32.109314 17.36935
4.7120795 -31.934692 17.359711
4.7990823 -31.832487 17.38653
4.9109688 -31.652792 17.365637
5.0208335 -31.538834 17.316502
4.9860001 -31.476 17.400999
5.1186495 -31.355097 17.350624
5.2554998 -31.251499 17.4935
5.2165947 -31.186337 17.378866
5.3278742 -31.082663 17.363274
5.4229794 -30.912863 17.349083
5.5422292 -30.801229 17.384583
5.6323295 -30.633095 17.359468
5.7052422 -30.4641 17.340668
5.8312044 -30.357832 17.378531
5.9522886 -30.164013 17.34466
6.0520148 -30.055134 17.399746
6.1420984 -29.877935 17.349463
6.2720909 -29.762182 17.458364
6.2293501 -29.732475 17.2897
6.3479915 -29.606281 17.378025
6.4340043 -29.43445 17.319887
6.551342 -29.32115 17.392569
6.6563416 -29.132463 17.36013
3.3835049 -33.860535 17.635826
3.4435 -33.692497 17.51675
3.5755467 -33.609661 17.640135
3.6844165 -33.421246 17.598631
3.788887 -33.309284 17.664545
3.8838484 -33.156139 17.633364
4.0124998 -33.0285 17.5865
3.9965 -32.987 17.679501
4.0947661 -32.863636 17.655584
4.2112708 -32.695126 17.634403
4.3056064 -32.561356 17.622229
4.4292674 -32.378231 17.644875
4.5139999 -32.303497 17.565001
4.6030855 -32.135941 17.62606
4.7098784 -31.948408 17.686338
4.8155575 -31.830912 17.614166
4.9420166 -31.632042 17.644333
5.0190473 -31.556517 17.56662
5.1268301 -31.362806 17.644716
5.2308116 -31.210112 17.646357
5.32236 -31.094654 17.602051
5.4244041 -30.920603 17.65379
5.5306029 -30.798841 17.568346
5.6261888 -30.634935 17.638857
5.7303653 -30.46406 17.694719
5.8283319 -30.345825 17.63419
5.9505587 -30.161352 17.66017
6.0306015 -30.070755 17.57387
6.1486926 -29.881962 17.61375
6.2525887 -29.750469 17.549589
6.2320271 -29.746016 17.696367
6.3351946 -29.611641 17.624628
6.4674258 -29.414129 17.652182
6.5465236 -29.309504 17.607773
6.6749043 -29.122498 17.612093
3.3480072 -33.882755 17.867243
3.4703333 -33.711582 17.910902
3.5621071 -33.58271 17.877048
3.6870744 -33.40057 17.862495
3.7809525 -33.263191 17.891048
3.8771567 -33.126518 17.879572
3.9859066 -32.973774 17.855131
4.0720916 -32.852688 17.905273
4.1939392 -32.676395 17.883112
4.2850952 -32.549717 17.873833
4.4083257 -32.373863 17.878262
4.5733728 -32.140293 17.889935
4.6971693 -31.961721 17.868982
4.7959442 -31.830572 17.890059
4.9118018 -31.659393 17.881639
5.0142498 -31.525902 17.9205
5.1200466 -31.36776 17.893368
5.217 -31.233938 17.900063
5.3215804 -31.085783 17.886969
5.4378686 -30.907495 17.868652
5.5350666 -30.803299 17.9256
5.6567974 -30.616571 17.891994
5.8318801 -30.370134 17.909248
5.956706 -30.179871 17.889633
6.0439224 -30.067194 17.893808
6.1406155 -29.907228 17.863745
6.2527499 -29.750584 17.854334
6.3490601 -29.621944 17.895018
3.3542607 -33.864445 18.133629
3.5681729 -33.612133 18.113211
3.7909763 -33.289879 18.070572
3.8784454 -33.120419 18.121117
4.0105 -33.019753 18.08075
4.070015 -32.848328 18.10737
4.2973199 -32.581245 18.069468
4.5105 -32.318501 18.063499
4.5913835 -32.112171 18.088737
4.8113785 -31.824041 18.06476
5.0199003 -31.571701 18.0322
5.102469 -31.365629 18.066404
5.333672 -31.057404 18.048014
5.5245719 -30.841288 18.005716
5.5998635 -30.618359 18.047421
