# .PCD v0.7 - Point Cloud Data file format
VERSION 0.7
FIELDS x y z
SIZE 4 4 4
TYPE F F F
COUNT 1 1 1
WIDTH 71
HEIGHT 1
VIEWPOINT -18.2321 96.2205 -1.35163 -0.354149 -0.00701479 0.0211809 0.934923
POINTS 71
DATA ascii
61.445499 103.746 11.452499
61.612915 103.66724 11.40625
61.056252 104.04176 11.344999
60.244751 104.4505 11.43475
59.874569 104.69115 11.361714
60.079601 104.6006 11.4024
60.2915 104.53149 11.3145
64.657875 101.86613 11.562533
64.142662 102.17001 11.561833
64.697502 102.027 11.691999
63.656666 102.45434 11.579999
63.879505 102.3416 11.592501
64.076996 102.304 11.6535
64.306999 102.3515 11.6875
64.611748 102.36375 11.7245
63.403301 102.6254 11.585401
63.554497 102.513 11.5765
63.847 102.508 11.67
62.86375 102.9155 11.54525
63.049 102.89799 11.6015
63.467999 102.849 11.67
63.722 102.927 11.739
63.861664 102.842 11.735667
62.391003 103.19033 11.549
62.796001 103.044 11.614
63.1045 103.06551 11.6585
63.436169 103.08783 11.724334
61.918503 103.4675 11.507
62.13575 103.343 11.543249
62.671001 103.495 11.679
62.865753 103.402 11.69125
63.056999 103.31 11.696
61.640999 103.66451 11.5385
61.846668 103.64567 11.569333
62.067497 103.718 11.618999
62.396332 103.69334 11.671666
62.581501 103.5845 11.674999
61.154003 103.91901 11.500667
61.394997 103.916 11.577
61.571999 103.789 11.58
61.889999 103.94601 11.678333
62.132 103.856 11.702667
60.863667 104.08767 11.511333
61.007 104.001 11.513
61.438 104.23 11.626
61.624596 104.1168 11.6798
61.816002 104.039 11.698
60.525002 104.345 11.52
61.1404 104.4296 11.6908
61.35775 104.30788 11.67275
60.870201 104.604 11.6607
61.014 104.509 11.681499
60.147503 104.89683 11.621666
64.930336 102.21133 11.799667
64.443001 102.491 11.797
64.642662 102.36166 11.8265
64.146416 102.6415 11.817
64.337006 102.558 11.783
63.659332 102.93967 11.810666
63.862667 102.84299 11.821666
63.163002 103.2475 11.759501
63.350998 103.1405 11.7785
63.57 103.015 11.776
62.666 103.487 11.8055
62.841335 103.44334 11.764999
63.062 103.318 11.783
62.3815 103.71125 11.7615
62.585999 103.5935 11.759
62.155502 103.7785 11.754499
62.254002 103.789 11.75
61.512001 104.188 11.772
