# .PCD v0.7 - Point Cloud Data file format
VERSION 0.7
FIELDS x y z
SIZE 4 4 4
TYPE F F F
COUNT 1 1 1
WIDTH 338
HEIGHT 1
VIEWPOINT -18.2321 96.2205 -1.35163 -0.354149 -0.00701479 0.0211809 0.934923
POINTS 338
DATA ascii
-53.106216 -6.3146801 -0.85155278
-52.934566 -6.4389377 -0.84840012
-53.350571 -6.1357064 -0.85502183
-53.227669 -6.2288337 -0.89566672
-53.330067 -5.8596663 -0.88100457
-53.101315 -6.3092508 -0.5973959
-52.917351 -6.4414811 -0.6225
-53.362549 -6.1197042 -0.61231643
-53.215393 -6.2275558 -0.64611119
-53.372086 -5.9057336 -0.63858151
-53.2883 -5.5962615 -0.61748892
-53.207851 -5.6609941 -0.64961374
-53.094273 -6.3049793 -0.40077084
-52.933544 -6.4207377 -0.38409525
-53.350876 -6.1184406 -0.36329851
-53.2015 -6.2259998 -0.41874999
-53.361328 -5.873785 -0.34859189
-53.295929 -5.5975423 -0.35325477
-53.207794 -5.647583 -0.40650004
-53.085934 -6.3000593 -0.1472687
-52.908981 -6.4271522 -0.13867918
-53.356125 -6.1031184 -0.11973704
-53.165833 -6.2391672 -0.052333336
-53.373093 -5.8766937 -0.099985413
-53.282696 -5.6069946 -0.13623054
-53.214882 -5.6303339 -0.13901429
-53.057934 -6.3084335 0.1276
-52.911133 -6.4123998 0.13716753
-53.375942 -6.0803142 0.11609286
-53.19775 -6.2052083 0.15369445
-53.381931 -5.8743334 0.11777937
-53.291584 -5.6432166 0.12720001
-53.230709 -5.6072502 0.14941667
-53.05233 -6.2997003 0.36800003
-52.90184 -6.4082713 0.40306947
-53.356544 -6.08535 0.36285448
-53.176102 -6.2126107 0.39021826
-53.369724 -5.8452301 0.36180311
-53.285351 -5.6009169 0.36138332
-53.22612 -5.6093512 0.40648511
-53.036861 -6.3019447 0.64541668
-52.877254 -6.4167619 0.6170119
-53.337917 -6.0871615 0.63555413
-53.164665 -6.2116256 0.61108339
-53.377239 -5.8432045 0.6330871
-53.276768 -5.6645412 0.61841077
-53.234207 -5.6045556 0.65134263
-52.778938 -6.5806856 0.87112826
-53.034126 -6.2939792 0.89197922
-52.847706 -6.4283981 0.86039162
-53.364094 -6.0590138 0.86927778
-53.169743 -6.1973596 0.86399049
-53.399334 -5.8660946 0.87260562
-53.274502 -5.6767082 0.89620841
-53.235058 -5.5517216 0.89794439
-53.063751 -6.2650418 1.0985833
-52.857067 -6.4100213 1.1467215
-53.335571 -6.0702949 1.0737195
-53.171803 -6.1881671 1.1062334
-53.405884 -5.8613071 1.138491
-53.280685 -5.6775002 1.0975208
-53.232082 -5.5513611 1.0937779
-52.781849 -6.5818372 1.3679185
-53.053501 -6.2640281 1.3500834
-52.86565 -6.3941965 1.3883834
-53.333672 -6.0597501 1.3714886
-53.170288 -6.1778517 1.3496852
-53.413933 -5.8636642 1.408738
-53.298595 -5.6880422 1.3288915
-53.227406 -5.5508275 1.354426
-53.04084 -6.2626667 1.5548334
-52.861012 -6.3879499 1.6304085
-53.323723 -6.0551672 1.6300933
-53.159443 -6.1721854 1.6498396
-53.408432 -5.852705 1.6360246
-53.286095 -5.6527834 1.6479001
-53.228241 -5.553493 1.6052015
-52.862316 -6.3761597 1.8729863
-53.298382 -6.0637274 1.87126
-53.147648 -6.1694813 1.9041609
-53.427307 -5.8699985 1.8840061
-53.306824 -5.6708126 1.8715695
-53.230663 -5.5511146 1.8529643
-52.866013 -6.3647604 2.1265109
-53.302063 -6.0510535 2.1295466
-53.138737 -6.1672387 2.1197453
-53.422993 -5.8879352 2.1111937
-53.318756 -5.6747761 2.1604793
-53.233116 -5.5492382 2.0999207
-52.883476 -6.3422313 2.3686967
-53.294872 -6.0457501 2.3711333
-53.121014 -6.1707983 2.3458333
-53.427708 -5.9015155 2.360918
-53.330387 -5.6788468 2.3982363
-53.241867 -5.5528283 2.3523102
-52.882923 -6.3359814 2.620338
-53.284668 -6.043983 2.6278
-53.089169 -6.1820621 2.638896
-53.419556 -5.8954244 2.6423969
-53.325775 -5.6597495 2.6196861
-53.244801 -5.461 2.744
-53.312336 -6.0143332 2.8505001
-53.13237 -6.1415548 2.8829722
-53.427364 -5.8829479 2.8872039
-53.316471 -5.634788 2.859185
-53.389141 -5.3551078 2.8732073
-53.243702 -5.4548168 2.9002666
-53.285778 -6.0177779 3.1446667
-53.114971 -6.1403208 3.1297479
-52.9552 -6.2274003 3.2495999
-53.404865 -5.8952818 3.1286502
-53.326775 -5.6352215 3.1505671
-53.390518 -5.3444581 3.1110046
-53.230202 -5.4596 3.0427999
-53.53054 -5.1827998 3.1304135
-53.262291 -6.0266666 3.4058332
-53.107857 -6.1372299 3.3830814
-53.42057 -5.8604293 3.3620756
-53.329288 -5.6253147 3.3842132
-53.394611 -5.3330126 3.3477707
-53.2435 -5.4437504 3.4494998
-53.537518 -5.1952 3.3707669
-53.254669 -6.0258331 3.546
-53.121864 -6.1172123 3.6278329
-52.945858 -6.2450008 3.645143
-53.501999 -5.8439999 3.6400001
-53.415756 -5.8973365 3.6338482
-53.350483 -5.6435165 3.6314335
-53.416965 -5.3042917 3.6342168
-53.243759 -5.4394403 3.6456375
-53.147167 -6.0893583 3.8702004
-52.962585 -6.2239633 3.8439257
-53.382355 -5.9146595 3.884249
-53.343826 -5.6179147 3.9034336
-53.240685 -5.4370003 3.8999374
-53.12606 -6.0941744 4.1137962
-52.956833 -6.2171669 4.1044998
-53.366146 -5.6353221 4.1158795
-53.239876 -5.4396248 4.1000624
-53.146336 -6.0706868 4.3557091
-52.943768 -6.2132897 4.3790865
-53.505249 -5.8087502 4.421
-53.36768 -5.6235209 4.3569188
-53.352081 -5.3145437 4.3795333
-53.24675 -5.4407921 4.3508749
-53.145855 -6.0600715 4.6477551
-52.944729 -6.2072921 4.6004791
-53.381023 -5.6228042 4.6364412
-53.308979 -5.3541231 4.6132531
-53.137253 -6.0592499 4.9000888
-52.936245 -6.2068219 4.8432832
-53.500999 -5.7709999 4.9959998
-53.406368 -5.6456666 4.873785
-53.30822 -5.3533263 4.8505206
-53.110691 -6.0673728 5.1296802
-52.914551 -6.2075834 5.1669898
-53.511169 -5.7721663 5.1005001
-53.415985 -5.6394296 5.1505537
-53.302101 -5.3891349 5.1387835
-53.078308 -6.0793338 5.3815193
-52.894127 -6.2129755 5.3991666
-53.508167 -5.7721672 5.3558898
-53.42585 -5.6409945 5.3866196
-53.292709 -5.3824296 5.3829408
-53.082119 -6.0693698 5.6108108
-52.892075 -6.2044921 5.6471591
-53.3932 -5.8436332 5.624692
-53.243584 -5.9528751 5.6072922
-53.508667 -5.734333 5.6628337
-53.412861 -5.603786 5.6496053
-53.313877 -5.3694572 5.6241693
-53.249001 -5.3495002 5.5465002
-53.105328 -6.0427198 5.8720274
-52.893974 -6.1938777 5.878417
-53.231342 -5.951746 5.8592224
-53.523666 -5.7363334 5.9084997
-53.415909 -5.590488 5.900259
-53.294754 -5.3785472 5.8669658
-53.088818 -6.0411744 6.1413579
-52.889835 -6.1875501 6.0952392
-53.183491 -5.9721336 6.1480222
-53.509636 -5.7212667 6.1640334
-53.426716 -5.592154 6.1367435
-53.293671 -5.38238 6.1257558
-53.085602 -6.0346336 6.3836884
-52.896729 -6.1717544 6.3604045
-53.198761 -5.9500337 6.4022541
-53.515087 -5.7094998 6.384583
-53.430573 -5.581358 6.3662109
-53.052532 -6.0465279 6.6441665
-52.89653 -6.1589694 6.6364522
-53.185993 -5.9490142 6.6489944
-53.522125 -5.6929169 6.6681252
-53.040962 -6.0460005 6.8982916
-52.886791 -6.1628599 6.87921
-53.359165 -5.819036 6.850595
-53.183434 -5.9439144 6.8983507
-53.513794 -5.6830001 6.9022083
-53.458443 -5.6244068 6.9107804
-53.033558 -6.0437775 7.1441665
-52.875496 -6.1602983 7.1252718
-53.173534 -5.9436145 7.1189384
-53.518333 -5.6803675 7.1262674
-53.042503 -6.0279999 7.3971667
-52.880207 -6.145062 7.369503
-53.319317 -5.8310046 7.3400021
-53.137615 -5.9594049 7.3670721
-53.511189 -5.676125 7.3450003
-53.457161 -5.638555 7.3847723
-53.033001 -6.0275002 7.5952501
-52.876812 -6.1418066 7.6234236
-53.331829 -5.8127337 7.6195326
-53.147488 -5.9425478 7.6184525
-53.019058 -6.0265002 7.849556
-52.837563 -6.1652369 7.8587632
-53.309414 -5.8181782 7.8507504
-53.127167 -5.9469376 7.8666358
-53.005836 -6.0258331 8.1326675
-52.841263 -6.1646914 8.115531
-53.317734 -5.802 8.0829334
-53.149509 -5.9191651 8.1555643
-52.86953 -6.1232071 8.3632278
-53.329777 -5.7806106 8.3788071
-53.144962 -5.9119644 8.4017563
-52.86517 -6.1183109 8.6213446
-53.308868 -5.7869673 8.6451502
-53.149658 -5.8999753 8.627142
-52.852306 -6.1122036 8.8723049
-53.280334 -5.7960005 8.9054165
-53.128494 -5.907218 8.8606186
-52.998001 -5.993 8.9619999
-52.842052 -6.1189389 9.1258831
-53.270336 -5.796 9.1442223
-53.13866 -5.8898215 9.1369753
-52.991886 -5.9925561 9.1465559
-53.409302 -5.6618218 9.1172972
-52.861691 -6.1004643 9.3808985
-53.257584 -5.7955003 9.4019165
-53.147831 -5.8745117 9.3772497
-52.980335 -5.9920001 9.4004993
-53.431438 -5.6375179 9.370327
-52.850063 -6.1199255 9.6419649
-53.264538 -5.7811337 9.6546335
-53.132877 -5.8761039 9.6147385
-52.970833 -5.9920001 9.5999165
-53.393108 -5.6933126 9.6351776
-52.839211 -6.1190267 9.8875666
-53.256416 -5.7779999 9.9020824
-53.088108 -5.8978672 9.8655663
-52.96167 -5.9867668 9.8590345
-53.381927 -5.6919289 9.8779058
-53.133259 -5.8551035 10.127794
-52.965668 -5.9743338 10.093375
-53.38472 -5.6797228 10.138528
-53.117958 -5.854517 10.370892
-52.950195 -5.9736943 10.350638
-53.416565 -5.6483855 10.359179
-53.090843 -5.864346 10.639567
-52.935799 -5.9734998 10.5989
-53.380234 -5.6632752 10.646376
-53.131298 -5.8259001 10.876576
-52.934624 -5.9648333 10.868431
-53.384602 -5.6505194 10.89329
-53.247002 -5.7432504 10.950749
-53.106449 -5.8350172 11.136352
-52.923645 -5.9644585 11.107105
-53.404411 -5.6279955 11.132968
-53.239002 -5.743361 11.143834
-53.109554 -5.82195 11.379048
-52.90979 -5.9641528 11.347042
-53.358784 -5.6482763 11.384875
-53.236252 -5.7327003 11.3999
-53.109833 -5.8112907 11.637103
-52.928005 -5.9375105 11.63851
-53.364517 -5.6337314 11.639611
-53.230389 -5.7258887 11.644333
-53.099922 -5.8067126 11.901062
-52.930351 -5.9272857 11.874548
-53.343536 -5.6373272 11.888757
-53.217415 -5.7254171 11.906166
-52.82093 -6.1243114 12.115144
-53.081421 -5.8073864 12.139569
-52.907654 -5.929862 12.135458
-53.366234 -5.6080704 12.12565
-53.185444 -5.7294998 12.145722
-53.057251 -5.7906251 12.369
-52.89629 -5.8734226 12.357697
-53.152714 -5.6845584 12.368493
-53.063068 -5.8034 12.626432
-53.359528 -5.5987453 12.622864
-53.198437 -5.7095003 12.648912
-53.04237 -5.8098001 12.873934
-53.363689 -5.5846567 12.88045
-53.17057 -5.7188334 12.877901
-53.035873 -5.8008962 13.102458
-53.340088 -5.5906668 13.136271
-53.163567 -5.7149372 13.097771
-53.047981 -5.7856879 13.351875
-53.388885 -5.5489402 13.36996
-53.179489 -5.6924272 13.362323
-53.465389 -5.4140663 13.386901
-53.048798 -5.7735004 13.603401
-53.356873 -5.5598936 13.615232
-53.16642 -5.6925125 13.634737
-53.034801 -5.7748008 13.848801
-53.339176 -5.5651093 13.837131
-53.176338 -5.6759715 13.881407
-53.466866 -5.4214749 13.851329
-53.302563 -5.5751662 14.126551
-53.154171 -5.6805592 14.124159
-53.444256 -5.4781113 14.147389
-53.303535 -5.5645995 14.36852
-53.123108 -5.6897287 14.378387
-53.439751 -5.4698334 14.393167
-53.308712 -5.5537162 14.5994
-53.103367 -5.6927857 14.644072
-53.429127 -5.4706106 14.597696
-53.309231 -5.5406876 14.851375
-53.118 -5.6709237 14.902753
-53.411728 -5.4697499 14.903701
-53.312836 -5.5282779 15.144389
-53.113415 -5.6638136 15.127672
-53.406982 -5.4637003 15.130823
-53.259628 -5.5443749 15.398625
-53.111839 -5.6481938 15.375299
-53.424957 -5.4348125 15.367354
-53.251251 -5.5444999 15.54825
-53.140434 -5.6147599 15.623524
-52.955658 -5.7441926 15.649558
-53.40723 -5.4329481 15.636875
-53.253334 -5.5393333 15.754667
-53.121105 -5.5998893 15.871674
-52.943348 -5.708622 15.917645
-53.246861 -5.4612861 15.957571
-53.12941 -5.5905004 16.140251
-52.900097 -5.6865997 16.0888
-53.205044 -5.3898029 16.116056
-53.143429 -5.5688095 16.351524
