# .PCD v0.7 - Point Cloud Data file format
VERSION 0.7
FIELDS x y z
SIZE 4 4 4
TYPE F F F
COUNT 1 1 1
WIDTH 249
HEIGHT 1
VIEWPOINT -18.2321 96.2205 -1.35163 -0.354149 -0.00701479 0.0211809 0.934923
POINTS 249
DATA ascii
-33.20575 67.483002 16.98
-32.725914 67.475418 16.907749
-32.142502 67.489998 16.8435
-31.941 67.488998 16.969
-31.589001 67.473 16.875999
-31.486 67.497002 16.851
-31.778 67.503998 16.958
-31.549 67.513 16.865999
-31.356667 67.513329 16.921667
-31.116749 67.509499 16.903
-30.947418 67.519585 16.930416
-30.5825 67.524994 16.9505
-33.352623 67.485252 17.119875
-33.101624 67.444504 17.14975
-32.8339 67.471001 17.1196
-32.674248 67.466003 17.13825
-32.368 67.468994 17.07
-32.237999 67.498001 17.016001
-31.931999 67.467003 17.183001
-31.712999 67.490997 17.16
-31.417999 67.478996 17.101
-31.167999 67.490501 17.0835
-32.957832 67.502167 17.212833
-32.591583 67.511086 17.210001
-32.404251 67.510254 17.1535
-32.117252 67.515099 17.17235
-31.674917 67.527748 17.209417
-31.402168 67.525665 17.075918
-31.127874 67.525627 17.204876
-30.853003 67.528999 17.144667
-30.601999 67.527832 17.143999
-33.369835 67.468834 17.293167
-32.859501 67.489998 17.338501
-32.41 67.495003 17.379999
-31.709999 67.482002 17.266001
-31.465 67.445999 17.441
-31.177 67.449997 17.263
-30.677999 67.491997 17.33
-33.2015 67.509079 17.396832
-32.882999 67.509499 17.384501
-32.648167 67.516174 17.396252
-32.331749 67.5355 17.42325
-32.124165 67.520996 17.409166
-31.901625 67.5345 17.391375
-31.571501 67.532501 17.33
-31.41275 67.540314 17.401812
-31.095835 67.534828 17.363834
-30.863041 67.549622 17.371416
-30.606417 67.532921 17.362749
-33.582001 67.487 17.589001
-33.446999 67.463997 17.615
-32.990002 67.480003 17.584999
-32.289001 67.473 17.528999
-33.59 67.504997 17.540001
-33.386002 67.514999 17.598
-32.783005 67.519554 17.559555
-32.547001 67.531998 17.620001
-32.460999 67.5355 17.6185
-32.169998 67.539001 17.625999
-31.884277 67.548393 17.565111
-31.579666 67.548164 17.609835
-31.355833 67.544495 17.546999
-31.09325 67.53775 17.581249
-30.923002 67.558502 17.569834
-30.688499 67.568497 17.6255
-33.953999 67.647003 17.972
-33.616665 67.598335 17.969332
-33.377502 67.584999 17.962749
-33.168251 67.574005 17.967999
-32.849251 67.598251 17.977751
-32.695 67.592003 17.959
-31.344 67.615997 17.973
-31.162498 67.5895 17.959999
-30.874001 67.625252 17.983501
-34.132431 67.6586 18.133682
-33.894459 67.654709 18.124195
-33.627689 67.654724 18.132286
-33.351669 67.636139 18.108021
-33.111748 67.642593 18.142906
-32.866936 67.65419 18.156105
-32.620247 67.651474 18.132465
-32.482498 67.637497 18.109501
-32.158752 67.659378 18.123125
-31.891836 67.671837 18.182333
-31.633932 67.685135 18.179668
-31.407501 67.690002 18.191
-31.142584 67.628914 18.029001
-30.894209 67.650421 18.076832
-34.2575 67.716003 18.263
-34.08754 67.719131 18.301083
-33.876541 67.711754 18.312166
-33.630535 67.714066 18.322699
-33.345219 67.726776 18.378153
-33.095249 67.733192 18.406813
-32.927002 67.730499 18.399168
-32.565498 67.746002 18.395
-32.382328 67.675224 18.426332
-31.834667 67.692505 18.364834
-31.602333 67.713501 18.282
-31.338875 67.723564 18.295437
-31.138 67.728218 18.315001
-33.65625 67.752922 18.454332
-33.344002 67.756668 18.475334
-32.632832 67.765007 18.468832
-32.321999 67.788002 18.414
-31.618834 67.787331 18.468332
-31.368834 67.784828 18.457335
-31.113501 67.793503 18.493999
-34.088417 67.811966 18.613083
-33.923103 67.838028 18.671234
-33.605499 67.78775 18.563917
-33.38623 67.799728 18.593235
-33.151001 67.811104 18.632601
-32.881638 67.811638 18.624666
-32.615112 67.807297 18.626631
-31.608597 67.829979 18.624403
-31.36462 67.817535 18.58062
-31.141453 67.840988 18.643818
-30.869043 67.832283 18.604073
-30.618334 67.844467 18.633059
-34.031502 67.851501 18.755001
-33.866901 67.911369 18.923967
-33.610584 67.90641 18.9095
-33.387459 67.915878 18.922562
-33.114601 67.880775 18.829998
-32.871002 67.891525 18.879833
-31.362249 67.915466 18.863432
-31.124193 67.913521 18.863125
-30.869642 67.91893 18.867357
-30.641027 67.93264 18.896002
-33.859337 67.972 19.101
-33.651218 67.974113 19.107555
-33.363197 67.964348 19.079451
-33.129665 67.974197 19.1056
-32.948334 67.985329 19.129
-31.342564 67.975395 19.060146
-31.148834 67.982132 19.076206
-30.873751 67.981461 19.057835
-30.604876 67.987373 19.057125
-33.769333 68.015503 19.214832
-33.599625 68.020752 19.244749
-33.4655 68.014755 19.2115
-33.161003 68.015335 19.243668
-32.895874 68.013 19.213749
-31.393625 68.018623 19.186626
-31.140709 68.023293 19.202251
-30.92878 68.027054 19.184334
-30.654333 68.011833 19.128834
-33.765335 68.046341 19.349335
-33.605457 68.082779 19.421541
-33.36824 68.076859 19.393723
-33.099621 68.05986 19.369822
-32.854286 68.064713 19.379107
-31.405251 68.069496 19.338501
-31.115 68.066498 19.334751
-30.876333 68.061668 19.289665
-33.588284 68.149582 19.627552
-33.399624 68.155998 19.639666
-33.135464 68.144653 19.627214
-32.869751 68.145943 19.618582
-32.616558 68.161034 19.664608
-31.614363 68.156197 19.602932
-31.3708 68.161499 19.6063
-31.038 68.185997 19.682499
-33.534248 68.207748 19.792999
-33.376289 68.212418 19.809792
-33.146435 68.21637 19.842865
-32.885914 68.213249 19.813999
-32.64727 68.220268 19.836666
-32.125004 68.209801 19.818899
-31.881901 68.21846 19.808599
-31.713167 68.243332 19.865168
-31.267 68.235001 19.787001
-31.120667 68.227097 19.805935
-33.408585 68.261215 19.945293
-33.154003 68.25351 19.953501
-32.854721 68.261108 19.955362
-32.606499 68.257339 19.948666
-32.457001 68.254669 19.940001
-32.150082 68.261162 19.951582
-31.870111 68.259674 19.937445
-31.527 68.292 19.99
-31.404999 68.300667 19.972668
-33.351002 68.313644 20.119696
-33.126308 68.309418 20.110882
-32.880001 68.311478 20.103594
-32.619572 68.316872 20.11725
-32.393074 68.316353 20.103714
-32.100582 68.301628 20.074375
-31.871799 68.326294 20.120998
-31.551834 68.346504 20.156334
-31.418625 68.326752 20.093563
-33.2645 68.379997 20.33025
-33.151371 68.401367 20.372833
-32.892815 68.401001 20.357563
-32.678001 68.381371 20.303625
-32.357113 68.441612 20.457499
-32.10918 68.415817 20.371859
-31.87867 68.405838 20.357277
-31.635887 68.41127 20.36376
-31.355433 68.423744 20.367535
-33.127502 68.461998 20.565851
-32.946999 68.449997 20.516001
-32.594749 68.485626 20.591499
-32.353291 68.479538 20.591105
-32.140503 68.47261 20.570168
-31.857332 68.482391 20.585196
-31.596874 68.486 20.589001
-31.402 68.483337 20.546669
-32.844833 68.529831 20.722042
-32.666748 68.510063 20.65925
-32.402252 68.511002 20.673
-32.127876 68.514999 20.689501
-31.893707 68.527039 20.716251
-31.655998 68.520248 20.693626
-33.039001 68.555832 20.811666
-32.865341 68.596565 20.926844
-32.603325 68.5784 20.891064
-32.363052 68.573326 20.855501
-32.127842 68.59182 20.905657
-31.868118 68.589256 20.891846
-31.617043 68.581444 20.864443
-32.845917 68.651253 21.099167
-32.646049 68.662132 21.124784
-32.383385 68.668762 21.131266
-32.132042 68.67469 21.146938
-31.859585 68.676285 21.131136
-31.62302 68.687569 21.13098
-32.784 68.719337 21.291166
-32.597374 68.728371 21.298626
-32.41925 68.723495 21.269749
-32.195999 68.735664 21.321999
-31.807499 68.731247 21.260502
-31.645668 68.743332 21.288
-32.621918 68.774796 21.435623
-32.3759 68.767502 21.404499
-32.081753 68.765419 21.410082
-31.892483 68.782433 21.412399
-32.608238 68.838264 21.634975
-32.377834 68.842239 21.630957
-32.150238 68.827232 21.602142
-31.871656 68.863159 21.66256
-32.546001 68.911995 21.86167
-32.387527 68.923332 21.872696
-32.148918 68.921417 21.867188
-32.397499 68.978874 22.036373
-32.170624 68.983002 22.061501
-32.359734 69.034668 22.188068
-32.1175 69.025002 22.15675
