# .PCD v0.7 - Point Cloud Data file format
VERSION 0.7
FIELDS x y z
SIZE 4 4 4
TYPE F F F
COUNT 1 1 1
WIDTH 73
HEIGHT 1
VIEWPOINT -18.2321 96.2205 -1.35163 -0.354149 -0.00701479 0.0211809 0.934923
POINTS 73
DATA ascii
-11.900999 65.485199 3.1294
-11.900833 65.484673 3.4193335
-11.899666 65.475334 3.6518333
-11.900374 65.477501 3.8517499
-11.90225 65.487747 4.0910835
-11.923 65.875168 4.1560001
-11.90325 65.492752 4.3255
-11.905251 65.501251 4.3955002
-11.92275 65.87175 4.3900003
-11.903666 65.4925 4.6395001
-11.923667 65.87442 4.5900002
-11.903667 65.491165 4.8968334
-11.908 65.513 4.9920001
-11.924335 65.87484 4.8598332
-11.953667 66.545341 4.848
-11.907666 65.509834 5.1549997
-11.928251 65.8955 5.1429996
-11.952499 66.537994 5.0847497
-11.90975 65.520248 5.38975
-11.92725 65.887421 5.3895836
-11.914667 65.54425 5.5904169
-11.911 65.522163 5.8578334
-11.912834 65.529503 6.1394997
-11.912666 65.527161 6.4085832
-11.958167 66.557671 6.3615556
-11.9115 65.51667 6.6545005
-11.930667 65.89283 6.6503334
-11.956833 66.54567 6.6545005
-11.91325 65.521996 6.88975
-11.9305 65.890999 6.88625
-11.941625 66.207367 6.8837504
-11.952 66.519249 6.8899999
-11.915917 65.536667 7.0904169
-11.932834 65.901665 7.099833
-11.940333 66.197334 7.1443334
-11.953501 66.523499 7.0927501
-11.917 65.538162 7.3618336
-11.933833 65.903999 7.3598332
-11.938667 66.18325 7.3915005
-11.953502 66.518669 7.3665004
-11.845167 65.34388 7.6095829
-11.86525 65.646004 7.5630002
-11.848 65.898666 7.5831666
-11.83175 66.185501 7.60675
-11.887334 66.329994 7.5543332
-11.913167 65.51133 7.8526664
-11.927388 65.863106 7.844389
-11.943125 66.203743 7.8636246
-11.956834 66.530838 7.8536668
-11.915 65.516251 8.1132498
-11.93225 65.883751 8.1152496
-11.916333 65.520836 8.3494997
-11.934 65.890503 8.3531246
-11.947 66.218246 8.3835001
-11.959583 66.540421 8.4092503
-11.91725 65.521751 8.5854998
-11.938167 65.909668 8.640667
-11.950084 66.232254 8.5877504
-11.9655 66.567245 8.6164999
-11.918945 65.527504 8.8627214
-11.94475 65.943253 8.8827496
-11.9515 66.235001 8.7674999
-11.956249 66.260498 8.9142494
-11.97 66.59066 8.8594999
-11.921249 65.5355 9.1082497
-11.942555 65.92411 9.1501112
-11.954 66.244003 9.2465
-11.958 66.267746 9.1065006
-11.9715 66.594254 9.1488752
-11.935333 65.880669 9.3585005
-11.9545 66.242996 9.4384995
-11.9575 66.260002 9.3449993
-11.96475 66.550499 9.3829994
