# .PCD v0.7 - Point Cloud Data file format
VERSION 0.7
FIELDS x y z
SIZE 4 4 4
TYPE F F F
COUNT 1 1 1
WIDTH 438
HEIGHT 1
VIEWPOINT -18.2321 96.2205 -1.35163 -0.354149 -0.00701479 0.0211809 0.934923
POINTS 438
DATA ascii
-28.39575 64.392502 -2.2867501
-28.407625 64.668251 -2.28425
-28.413 64.867752 -2.2980001
-28.424959 65.082581 -2.3104167
-28.397917 64.417473 -2.1243889
-28.407915 64.648659 -2.1183333
-28.4165 64.876503 -2.1125
-28.425001 65.083 -2.0935001
-28.436003 65.356667 -2.1306667
-28.394611 64.129723 -1.8812222
-28.412073 64.396851 -1.8614285
-28.426199 64.622505 -1.8712
-28.439856 64.850365 -1.8425714
-28.441713 65.139786 -1.8817856
-28.45475 65.401001 -1.88325
-28.534 65.710999 -1.7925
-28.461498 65.616745 -1.8975
-28.535934 64.379005 -1.6063999
-28.481501 64.345001 -1.6984999
-28.539167 64.660339 -1.6304168
-28.558201 64.909897 -1.6183001
-28.548801 65.093399 -1.6847999
-28.574415 65.351471 -1.6472501
-28.583582 65.610245 -1.6363333
-28.599499 65.8741 -1.6264999
-28.551624 64.387253 -1.3877499
-28.563248 64.655876 -1.3874999
-28.572998 64.917839 -1.3516668
-28.581667 65.132332 -1.3716666
-28.590668 65.340668 -1.3956251
-28.6003 65.593605 -1.3662
-28.611626 65.890503 -1.3963749
-28.552332 64.389503 -1.1416668
-28.564751 64.659332 -1.141
-28.575624 64.923752 -1.11075
-28.582499 65.092171 -1.0928334
-28.591888 65.343613 -1.1404723
-28.602081 65.609917 -1.1371666
-28.612501 65.892502 -1.1455833
-28.5527 64.379501 -0.86709994
-28.566 64.675003 -0.86619997
-28.574875 64.890869 -0.88824999
-28.582998 65.071281 -0.85766667
-28.593374 65.347672 -0.88550007
-28.603399 65.601501 -0.90150005
-28.615376 65.900253 -0.89474994
-28.554102 64.405296 -0.62979996
-28.5646 64.646896 -0.62620002
-28.5755 64.9245 -0.61575001
-28.582998 65.093834 -0.59583336
-28.594999 65.360924 -0.61585712
-28.604836 65.617577 -0.64183336
-28.616751 65.903419 -0.64449996
-28.554667 64.395752 -0.35516667
-28.566299 64.676804 -0.37280002
-28.573832 64.856667 -0.36300001
-28.583002 65.059303 -0.3682
-28.594124 65.350128 -0.38150001
-28.605125 65.619377 -0.39200002
-28.618126 65.906502 -0.3935
-28.556625 64.400993 -0.10937501
-28.566916 64.644501 -0.13541667
-28.5765 64.862747 -0.1155
-28.585199 65.090195 -0.1238
-28.595749 65.35434 -0.13274999
-28.606833 65.622749 -0.14216667
-28.61825 65.907082 -0.14325
-28.55625 64.400078 0.13666667
-28.56883 64.670586 0.14158334
-28.5765 64.863503 0.13183333
-28.5854 65.065102 0.1274
-28.594999 65.353119 0.1165
-28.60675 65.621628 0.107625
-28.61725 65.905373 0.107625
-28.557625 64.403122 0.38249999
-28.569624 64.672119 0.38800001
-28.577499 64.865746 0.3795
-28.5854 65.091202 0.37239999
-28.594749 65.352753 0.36516666
-28.606501 65.622414 0.35724998
-28.619333 65.910339 0.35800001
-28.559299 64.418167 0.62416661
-28.570669 64.67466 0.63500005
-28.578833 64.86834 0.62649995
-28.5867 65.067497 0.62379998
-28.59675 65.37883 0.64466667
-28.605999 65.621506 0.606875
-28.618124 65.907867 0.60862499
-28.55975 64.649376 0.89950001
-28.572226 64.828224 0.91577774
-28.587967 65.104813 0.86760008
-28.590376 65.35688 0.88006246
-28.598999 65.604668 0.85258335
-28.603144 65.898636 0.87657136
-28.611801 66.120193 0.87940007
-28.5425 64.337372 1.12625
-28.474501 64.425247 1.11525
-28.535374 64.622131 1.08375
-28.460751 64.6045 1.11825
-28.547127 64.8815 1.125375
-28.453999 64.872749 1.0705
-28.547125 65.069374 1.1115
-28.46525 65.178497 1.06775
-28.566198 65.372604 1.1336
-28.483002 65.401497 1.054
-28.581499 65.660751 1.1444999
-28.48975 65.612251 1.0425
-28.588831 65.898834 1.1343333
-28.489 65.848503 1.0315001
-28.598 66.107254 1.1413749
-28.572498 64.614502 1.3807499
-28.581167 64.817497 1.3692499
-28.594732 65.1119 1.3801668
-28.607416 65.381416 1.36175
-28.617416 65.647835 1.3570833
-28.627998 65.900497 1.342375
-28.6362 66.079002 1.3815
-28.574831 64.620171 1.6271666
-28.584751 64.826378 1.617125
-28.601801 65.102196 1.6414
-28.611376 65.390625 1.611375
-28.620401 65.642197 1.6166999
-28.62925 65.873749 1.6112499
-28.637749 66.071007 1.6135
-28.621725 64.383804 1.8398333
-28.577999 64.627251 1.9115834
-28.587997 64.833412 1.8645834
-28.600584 65.112076 1.8673333
-28.612167 65.392334 1.8604168
-28.62175 65.657166 1.8575001
-28.630165 65.875999 1.8625001
-28.63875 66.073082 1.8648334
-28.64221 64.371468 2.1059167
-28.57975 64.6315 2.1210001
-28.591599 64.852196 2.1023002
-28.601599 65.101501 2.1229
-28.614374 65.397003 2.1100001
-28.625502 65.644173 2.1359167
-28.635 65.887001 2.11325
-28.644751 66.086502 2.1164999
-28.647224 64.370026 2.3513057
-28.5805 64.584 2.3834999
-28.59157 64.848564 2.3737144
-28.602142 65.105995 2.3751428
-28.615 65.398331 2.3593333
-28.627748 65.670494 2.3622501
-28.636833 65.890327 2.3646667
-28.645081 66.087669 2.3680832
-28.652 64.380493 2.6468337
-28.579834 64.590675 2.5953333
-28.592251 64.842125 2.6073751
-28.604626 65.120125 2.6085
-28.615749 65.399628 2.6087499
-28.625124 65.664246 2.6083751
-28.633249 65.881744 2.615
-28.643499 66.08313 2.6199999
-28.661814 64.381004 2.9015002
-28.579498 64.568832 2.8564999
-28.595001 64.855576 2.8552144
-28.607168 65.125664 2.8578331
-28.616249 65.400085 2.8584166
-28.626286 65.656998 2.8579285
-28.635332 65.885674 2.8666668
-28.644669 66.085663 2.8715837
-28.674603 64.380783 3.1336503
-28.581501 64.560593 3.1319001
-28.5914 64.827408 3.1318002
-28.607 65.134575 3.1374285
-28.61725 65.401871 3.1077499
-28.626249 65.64492 3.13675
-28.634251 65.882996 3.1175001
-28.6427 66.0924 3.1384003
-28.685623 64.386917 3.3912499
-28.582998 64.587997 3.3714995
-28.595301 64.858101 3.3706002
-28.607 65.12484 3.3587501
-28.618917 65.405243 3.3575833
-28.626358 65.657211 3.3623574
-28.636168 65.887337 3.3686666
-28.646402 66.077103 3.3753002
-28.690599 64.393456 3.6360004
-28.583801 64.565292 3.6261001
-28.594749 64.846085 3.6479168
-28.6064 65.135803 3.6326001
-28.616625 65.399872 3.607125
-28.6283 65.657196 3.5990002
-28.639 65.892746 3.6205001
-28.651083 66.098999 3.6318331
-28.664511 64.426636 3.8585002
-28.5858 64.5933 3.8659999
-28.596001 64.847748 3.8959999
-28.6096 65.116402 3.8739002
-28.620085 65.406746 3.8573334
-28.631876 65.6465 3.8338752
-28.641201 65.843094 3.8903999
-28.652374 66.101624 3.8798747
-28.657326 64.448082 4.1373734
-28.587585 64.584419 4.1421666
-28.597139 64.858284 4.1446428
-28.6117 65.146896 4.1306
-28.62175 65.410004 4.1073751
-28.633169 65.658836 4.1273332
-28.6415 65.864128 4.1283751
-28.652916 66.102081 4.1320834
-28.676649 64.444664 4.3932753
-28.590252 64.590126 4.3897505
-28.599377 64.853874 4.3924999
-28.6108 65.117996 4.3720002
-28.622751 65.411667 4.3575835
-28.63275 65.646378 4.335
-28.640799 65.8405 4.3830996
-28.651875 66.098877 4.3843751
-28.679834 64.453384 4.6152334
-28.597643 64.580566 4.6418576
-28.601213 64.849854 4.6409287
-28.611902 65.145401 4.6293001
-28.622101 65.396202 4.6362
-28.633749 65.616753 4.6085005
-28.6392 65.836197 4.6241002
-28.6495 66.092751 4.6360831
-28.706522 64.442543 4.8853998
-28.610857 64.559715 4.8780713
-28.601299 64.845299 4.8989997
-28.611401 65.1175 4.8702002
-28.622799 65.423691 4.8792
-28.634247 65.679588 4.8650837
-28.643499 65.900002 4.8958335
-28.64875 66.090118 4.8882499
-28.70575 64.45575 5.1214375
-28.606764 64.588783 5.1114764
-28.602415 64.858917 5.1341667
-28.613001 65.146591 5.1281996
-28.624249 65.412872 5.1085
-28.636 65.621002 5.1105003
-28.642929 65.839432 5.1312141
-28.651751 66.096169 5.141417
-28.710791 64.466621 5.3657079
-28.613789 64.587112 5.3714471
-28.602716 64.834854 5.3680716
-28.615198 65.124596 5.3699999
-28.628502 65.421165 5.3513331
-28.638401 65.579102 5.3950996
-28.647251 65.838501 5.3798752
-28.658501 66.110374 5.3950005
-28.714127 64.472183 5.6118751
-28.612158 64.614746 5.6217203
-28.606165 64.865334 5.6326671
-28.619501 65.159294 5.6283998
-28.629499 65.401665 5.6496663
-28.637875 65.565506 5.6166248
-28.649252 65.842499 5.6321664
-28.660101 66.101601 5.6274996
-28.747248 64.457001 5.8670001
-28.624527 64.603142 5.8560004
-28.604584 64.842171 5.8715
-28.617199 65.127197 5.8698001
-28.6318 65.413605 5.8801999
-28.638168 65.565086 5.8719163
-28.650999 65.846001 5.8846254
-28.661098 66.126694 5.8718996
-28.617693 64.625969 6.1281943
-28.606857 64.857292 6.1196432
-28.620401 65.1595 6.1288996
-28.630751 65.423752 6.1122503
-28.641499 65.629501 6.1167498
-28.649834 65.841751 6.1364174
-28.660999 66.113625 6.1038752
-28.642073 64.596642 6.4021544
-28.607624 64.865875 6.3842497
-28.619699 65.130898 6.3700004
-28.631668 65.424416 6.3718333
-28.6397 65.578003 6.3809004
-28.647001 65.834 6.3882504
-28.655914 66.101418 6.3558331
-28.609085 64.8675 6.633667
-28.621399 65.159103 6.6294999
-28.632166 65.40284 6.6205001
-28.640877 65.567245 6.6353745
-28.647749 65.834587 6.6408334
-28.654125 66.09613 6.6096249
-28.615875 64.881378 6.8848753
-28.622601 65.134804 6.8716993
-28.632299 65.410698 6.8642998
-28.6415 65.626335 6.8724999
-28.647503 65.83287 6.8937502
-28.6555 66.097923 6.8629169
-28.615084 64.87867 7.134584
-28.6224 65.160103 7.1411004
-28.634699 65.441101 7.1096001
-28.641832 65.625496 7.1335006
-28.6478 65.819397 7.1248999
-28.654625 66.094749 7.116375
-28.606667 64.89875 7.4070001
-28.616915 65.1325 7.3795834
-28.618856 65.381218 7.3971429
-28.624502 65.605499 7.4003334
-28.641832 65.860001 7.3805833
-28.649834 66.101585 7.3535829
-28.4715 64.671997 7.5834999
-28.5735 64.851501 7.6157508
-28.4895 64.842003 7.5675001
-28.5788 65.145699 7.6002998
-28.487 65.089005 7.5574999
-28.572126 65.403748 7.6056252
-28.483999 65.261002 7.5630002
-28.595331 65.604668 7.6296668
-28.5732 65.854797 7.5896006
-28.620625 66.123749 7.61975
-28.629831 65.160088 7.8560834
-28.639666 65.370499 7.8653336
-28.652874 65.588379 7.8870001
-28.663086 65.86367 7.8595004
-28.615252 64.873756 8.1353331
-28.633001 65.165497 8.1082497
-28.6425 65.375748 8.1184998
-28.653418 65.588409 8.1395836
-28.666876 65.871002 8.1140003
-28.677582 66.141747 8.1351671
-28.614376 64.869751 8.3855
-28.630999 65.159332 8.3591671
-28.640335 65.3685 8.3699999
-28.650749 65.580505 8.3920002
-28.665503 65.866165 8.3548326
-28.674301 66.144501 8.3737001
-28.620249 64.881744 8.6381674
-28.638601 65.1614 8.6386003
-28.63925 65.364998 8.6219997
-28.649918 65.577171 8.6445837
-28.663898 65.874306 8.6224995
-28.6724 66.115501 8.6257992
-28.620625 64.881126 8.8893747
-28.631001 65.187996 8.8998756
-28.641333 65.368004 8.8500004
-28.649 65.57338 8.8977499
-28.660801 65.838799 8.8728008
-28.676834 66.154251 8.8884163
-28.622503 64.883827 9.1411667
-28.633875 65.1605 9.1157494
-28.640833 65.365662 9.1363335
-28.653374 65.582123 9.0892496
-28.666203 65.876999 9.1317005
-28.680748 66.142494 9.1091251
-28.689625 66.384369 9.1188755
-28.62175 64.880875 9.3924999
-28.6325 65.155838 9.3720007
-28.646749 65.376755 9.36975
-28.654831 65.584167 9.3561668
-28.667801 65.8517 9.3685999
-28.680298 66.1287 9.3376999
-28.693501 66.358002 9.3937492
-28.625299 64.898804 9.6219997
-28.6348 65.145798 9.645999
-28.644501 65.370003 9.635334
-28.654625 65.581879 9.6162491
-28.673834 65.854591 9.6182489
-28.688501 66.145599 9.6472998
-28.6975 66.393204 9.6232996
-28.6229 64.8685 9.8696995
-28.6357 65.172195 9.8841991
-28.643499 65.366997 9.8385
-28.657751 65.586998 9.8609171
-28.673599 65.888405 9.8731995
-28.683125 66.142624 9.9223747
-28.701 66.373001 9.8319998
-28.625 64.871399 10.1278
-28.639286 65.156715 10.117572
-28.647667 65.373497 10.151834
-28.6565 65.562836 10.144334
-28.67417 65.851501 10.116166
-28.688625 66.154495 10.077749
-28.697166 66.317665 10.148999
-28.5905 65.116196 10.361401
-28.583302 65.314102 10.378
-28.6616 65.603699 10.3195
-28.676098 65.890701 10.380099
-28.688126 66.150375 10.397625
-28.706001 66.379501 10.2705
-28.652248 65.349251 10.650751
-28.667334 65.602829 10.636666
-28.679001 65.881752 10.62325
-28.697001 66.16967 10.63025
-28.708166 66.381996 10.640167
-28.656668 65.347008 10.871083
-28.671627 65.610504 10.88875
-28.682501 65.874191 10.8706
-28.697126 66.167816 10.886188
-28.709 66.381744 10.889
-28.672003 65.610085 11.140332
-28.685999 65.893997 11.155499
-28.699083 66.150826 11.134084
-28.717501 66.367744 11.10075
-28.674751 65.613876 11.401375
-28.688751 65.898376 11.387875
-28.699701 66.157997 11.3766
-28.711334 66.383339 11.355166
-28.67675 65.616501 11.607
-28.6901 65.885109 11.622499
-28.701752 66.153 11.611584
-28.7164 66.367203 11.678101
-28.677168 65.615166 11.863334
-28.688801 65.907799 11.8729
-28.7013 66.156998 11.897799
-28.71575 66.389748 11.87475
-28.681904 65.635094 12.1377
-28.692001 65.898872 12.109251
-28.703001 66.13134 12.103833
-28.720833 66.398331 12.127
-28.680302 65.606201 12.367201
-28.693581 65.89991 12.349917
-28.715998 66.178665 12.401
-28.718248 66.347748 12.368167
-28.684399 65.636604 12.6066
-28.699299 65.896805 12.6775
-28.714127 66.073624 12.601375
-28.7176 66.309692 12.6227
-28.680502 65.594505 12.823334
-28.70475 65.98925 12.886
-28.710001 66.167709 12.874201
-28.717249 66.384247 12.80875
-28.68075 65.611755 13.105249
-28.694666 65.872002 13.191667
-28.707499 66.191162 13.068
-28.686857 65.631142 13.370928
-28.695999 65.919006 13.376
-28.703501 66.143356 13.367642
-28.687698 65.633698 13.6399
-28.700201 65.917099 13.603399
-28.706085 66.143745 13.628415
-28.685501 65.602699 13.870099
-28.6985 65.896667 13.848918
-28.705332 66.158333 13.87875
-28.688501 65.6185 14.136333
-28.699375 65.896248 14.111126
-28.711298 66.181595 14.132401
-28.6957 65.6437 14.3893
-28.703573 65.893929 14.343358
-28.714899 66.163902 14.370199
-28.716101 66.163696 14.6269
