# .PCD v0.7 - Point Cloud Data file format
VERSION 0.7
FIELDS x y z
SIZE 4 4 4
TYPE F F F
COUNT 1 1 1
WIDTH 85
HEIGHT 1
VIEWPOINT -18.2321 96.2205 -1.35163 -0.354149 -0.00701479 0.0211809 0.934923
POINTS 85
DATA ascii
17.916126 -20.817501 15.495125
18.150585 -20.792339 15.496902
18.370451 -20.805716 15.497233
18.634001 -20.804832 15.498833
18.79414 -20.858194 15.498555
17.701567 -20.563234 15.487167
17.868221 -20.657404 15.492726
18.127661 -20.611013 15.489525
18.383204 -20.617899 15.490512
18.619083 -20.64665 15.492587
18.876797 -20.632816 15.494408
19.130228 -20.653034 15.495303
19.341003 -20.563461 15.494479
17.464209 -20.291834 15.47725
17.61595 -20.34915 15.477656
17.862602 -20.364586 15.477522
18.135599 -20.352434 15.480136
18.368301 -20.411207 15.481562
18.648787 -20.38077 15.48318
18.870483 -20.369913 15.484462
19.129086 -20.410221 15.488237
19.372572 -20.356192 15.484766
17.364231 -20.111811 15.467562
17.60918 -20.128445 15.465834
17.850723 -20.101948 15.46608
18.131405 -20.119785 15.4678
18.376722 -20.150387 15.472617
18.614641 -20.11554 15.472828
18.878603 -20.149662 15.476514
19.144901 -20.152609 15.474906
19.317501 -20.177 15.4795
17.400307 -19.851376 15.453785
17.61248 -19.870167 15.456647
17.850754 -19.880283 15.455719
18.119381 -19.866293 15.45738
18.381458 -19.864779 15.45971
18.611357 -19.884253 15.464519
18.87697 -19.853682 15.461723
17.100645 -19.648012 15.435634
17.349962 -19.601171 15.439828
17.647255 -19.636292 15.444936
17.911579 -19.629963 15.446222
18.128502 -19.611151 15.446544
18.353796 -19.633541 15.451078
18.647516 -19.637787 15.45163
16.898315 -19.360424 15.418486
17.113792 -19.370338 15.41643
17.378126 -19.350895 15.423514
17.628866 -19.40712 15.433739
17.884764 -19.369503 15.436091
18.132658 -19.337599 15.437193
18.373991 -19.366215 15.439509
16.87709 -19.129644 15.398972
17.14994 -19.15572 15.409699
17.370733 -19.108593 15.404129
17.604576 -19.150723 15.416828
17.851566 -19.119936 15.423961
18.131348 -19.091066 15.423551
16.896488 -18.944342 15.352617
17.141697 -18.858574 15.377776
17.378212 -18.869194 15.403266
17.625582 -18.877659 15.404015
17.881672 -18.843851 15.40921
17.198723 -18.662722 15.340203
17.37084 -18.645788 15.371644
17.636026 -18.652002 15.404237
17.420918 -18.483917 15.34375
18.538952 -21.291233 15.518551
18.175631 -21.084246 15.510045
18.383526 -21.147638 15.513728
18.643766 -21.118061 15.511872
18.847715 -21.037573 15.507573
17.932384 -20.830715 15.525685
18.112 -20.881504 15.505177
18.37254 -20.89316 15.503454
18.648855 -20.88516 15.504011
18.893023 -20.86043 15.502906
19.068789 -20.802435 15.50087
17.7005 -20.551498 15.50525
17.839748 -20.6945 15.501499
18.676001 -20.677 15.5
18.859962 -20.698816 15.501111
19.134335 -20.744499 15.502167
19.295668 -20.626665 15.504001
19.121 -20.438 15.516
