# .PCD v0.7 - Point Cloud Data file format
VERSION 0.7
FIELDS x y z
SIZE 4 4 4
TYPE F F F
COUNT 1 1 1
WIDTH 368
HEIGHT 1
VIEWPOINT -18.2321 96.2205 -1.35163 -0.354149 -0.00701479 0.0211809 0.934923
POINTS 368
DATA ascii
25.964001 62.686001 -3.069
26.113998 62.615501 -3.069
26.452999 62.630001 -3.072
26.500999 62.618 -3.075
27.469833 62.652168 -3.0785
27.626961 62.706749 -3.0487084
28.143999 62.659 -3.098
28.609751 62.706501 -3.10325
25.959999 62.797001 -3.066
26.077 62.841 -3.076
26.261 62.776001 -3.0780001
27.466249 62.887253 -3.05475
27.989 62.797001 -3.0910001
28.132 62.763 -3.099
28.378752 62.903748 -3.1034999
28.555 62.939003 -3.1005001
28.855333 62.83733 -3.1113331
29.244499 62.868 -3.112
29.359001 62.85825 -3.1125
29.555 62.856998 -3.1110001
29.885 62.868 -3.112
30.078499 62.8675 -3.1185
32.123501 62.859497 -3.1355
27.414581 63.107586 -3.0615833
28.040001 63.033001 -3.098
20.138119 62.433521 -2.83674
20.433233 62.399303 -2.8836668
20.630194 62.373707 -2.897507
20.372738 62.571262 -2.9107857
25.917652 62.697399 -2.8306499
26.093 62.688248 -2.878
26.362555 62.724667 -2.8612499
26.554501 62.745003 -2.8660002
27.62394 62.719292 -2.9520211
20.330084 62.835709 -2.91675
26.648064 62.754395 -2.8486457
26.902571 62.781433 -2.8657138
27.119429 62.801716 -2.8309288
27.393927 62.832165 -2.9038098
27.6085 62.821224 -2.8627224
27.860863 62.859695 -2.8140278
28.160198 62.857399 -2.8731999
28.371201 62.872303 -2.8469002
28.660334 62.835999 -2.9150002
28.878624 62.860123 -2.8651249
29.112085 62.875996 -2.8515003
29.336498 62.866875 -2.8989999
29.5865 62.860249 -2.915
29.883499 62.880859 -2.8647141
30.139334 62.869663 -2.919667
30.391333 62.899998 -2.9156668
31.388599 62.938904 -2.8874002
31.585875 62.969128 -2.8822498
31.87471 62.985916 -2.8908749
32.028999 62.993 -2.984
27.442583 63.07325 -2.9635835
31.752001 63 -2.974
32.161499 63.013 -2.9735
32.360626 63.06012 -2.9523749
32.585293 63.055626 -2.8890834
19.876801 62.453999 -2.6259999
20.097382 62.455833 -2.6127381
20.37092 62.458412 -2.6173999
20.648493 62.450649 -2.6492095
20.659 62.508999 -2.724
25.813751 62.694 -2.64275
26.111612 62.70953 -2.6295002
26.333109 62.72472 -2.6102221
26.461 62.750999 -2.5679998
26.6255 62.7659 -2.6221664
27.084999 62.804417 -2.6170833
27.369375 62.874458 -2.5650001
27.60454 62.847961 -2.6393335
27.855722 62.867558 -2.6139724
28.2425 62.877666 -2.6441667
28.4069 62.885601 -2.6102002
28.570751 62.883751 -2.61975
28.9105 62.898499 -2.6339998
29.109251 62.887669 -2.6134164
29.373001 62.858002 -2.6216667
29.563499 62.872749 -2.61375
29.898666 62.887165 -2.6495001
30.105875 62.902626 -2.632
30.896399 62.955101 -2.6108
31.103027 62.911057 -2.6445277
31.460751 62.959499 -2.60425
31.571751 62.971748 -2.6134999
31.864 62.995499 -2.631
29.09 63.000999 -2.701
30.415249 63.05925 -2.5904999
30.8815 63.013 -2.6055
31.904249 63.0205 -2.6447501
32.1675 63.054504 -2.6423333
32.275665 63.044113 -2.6567776
32.574337 63.077667 -2.6503334
32.93008 63.100582 -2.6575835
19.877201 62.454872 -2.3785999
20.106895 62.466682 -2.3665209
20.393902 62.469627 -2.37377
20.599543 62.457169 -2.4072709
20.761999 62.514999 -2.484
22.119833 62.518688 -2.3390832
23.952 62.597 -2.283
24.093834 62.584248 -2.3543332
24.912111 62.623249 -2.3469446
25.112001 62.632038 -2.3735666
25.382418 62.640167 -2.3942223
25.6485 62.647125 -2.3502498
25.856701 62.679699 -2.3595667
26.097599 62.707905 -2.3319001
26.3724 62.729797 -2.3621001
26.641724 62.760944 -2.3559444
26.91025 62.780998 -2.286
27.088875 62.802567 -2.3778124
27.379549 62.848331 -2.3745713
27.605209 62.848331 -2.3515835
27.869917 62.885208 -2.3712292
28.244499 62.881332 -2.3631668
28.386099 62.884399 -2.3871999
29.163124 62.868622 -2.400625
29.390667 62.859966 -2.3748002
29.568501 62.8825 -2.38375
29.921713 62.889004 -2.3824286
30.119169 62.902332 -2.3918333
30.933874 62.952751 -2.354125
31.116299 62.909004 -2.3694999
31.403334 62.954498 -2.3935001
31.569834 62.967167 -2.3760002
31.863001 62.992001 -2.2839999
27.521999 63.040001 -2.4719999
31.481001 63 -2.335
31.882999 63.032501 -2.4594998
32.1675 63.054501 -2.378
32.299 63.089001 -2.3540001
32.577248 63.084 -2.3645
32.979832 63.102997 -2.3618333
33.093002 63.101997 -2.306
33.433498 63.112747 -2.4147501
19.678099 62.471699 -2.1278
19.8596 62.459801 -2.1230001
20.130289 62.470787 -2.1198335
20.356953 62.469769 -2.1277833
20.566957 62.461487 -2.1464307
20.786499 62.519501 -2.2084999
21.644056 62.532608 -2.0937223
21.872524 62.526051 -2.1633573
22.133081 62.525085 -2.11025
22.377058 62.520355 -2.1441112
22.610001 62.524498 -2.1293998
22.873749 62.52692 -2.1486666
23.130613 62.550671 -2.0998335
23.386457 62.565582 -2.0966249
23.549 62.597 -2.2
23.957001 62.609001 -2.003
24.095459 62.587959 -2.1088333
24.920876 62.629623 -2.1087499
25.132967 62.634468 -2.1289001
25.410213 62.637428 -2.1565714
25.651501 62.665253 -2.1055002
25.927601 62.6959 -2.1284001
26.129332 62.70908 -2.1258333
26.455 62.735748 -2.1995001
26.603201 62.759697 -2.1382
26.861532 62.774364 -2.0980334
27.15325 62.7995 -2.1101251
27.316999 62.819916 -2.1435001
27.610123 62.859062 -2.112375
27.909435 62.885563 -2.153125
28.2435 62.877998 -2.1104999
28.370337 62.900249 -2.1106665
29.595167 62.860504 -2.0838335
29.959499 62.905998 -2.1570001
30.061666 62.893002 -2.0873332
30.479668 62.967163 -2.1353333
30.566 62.9245 -2.069
31.092953 62.910069 -2.1229999
31.348 62.954334 -2.1763332
31.572001 62.972 -2.0970001
30.518 63.047001 -2.1800001
31.8785 63.023003 -2.1624999
32.299667 63.09 -2.1056669
32.579498 63.08667 -2.1461666
32.981667 63.106335 -2.1626666
33.097 63.109497 -2.12025
33.446667 63.102329 -2.1298335
19.709499 62.479374 -1.880125
19.871834 62.466671 -1.8588333
20.10675 62.477505 -1.8645625
20.358418 62.478924 -1.8556666
20.578251 62.476051 -1.8750767
20.854 62.513 -1.921
21.184 62.546249 -1.92875
21.418085 62.551624 -1.886
21.621876 62.538628 -1.9293749
21.901733 62.540966 -1.8797667
22.13736 62.536915 -1.8980279
22.373501 62.529766 -1.8769001
22.634501 62.526836 -1.8954166
22.892233 62.540203 -1.8840668
23.147043 62.556747 -1.8687294
23.389334 62.572498 -1.8482499
23.686001 62.602249 -1.98175
23.866001 62.608749 -1.9890001
24.108 62.593201 -1.8630002
24.514252 62.621002 -1.89525
24.933432 62.635998 -1.8822
25.1394 62.641499 -1.8664999
25.386644 62.650074 -1.8557142
25.653999 62.672001 -1.987
25.932501 62.7071 -1.8825001
26.105877 62.714001 -1.87125
26.612751 62.757668 -1.9029167
26.909813 62.77681 -1.8607708
27.162834 62.820831 -1.8555001
27.319 62.823666 -1.8570833
27.64757 62.852119 -1.8511192
27.965998 62.864334 -1.8623333
28.247 62.887001 -1.906
28.372042 62.884399 -1.8726459
28.563 62.889999 -1.845
30.103601 62.887001 -1.8534
30.366501 62.905502 -1.8659999
30.6215 62.924999 -1.9219999
31.098713 62.910542 -1.8577499
31.32975 62.944248 -1.8926249
31.579666 62.985828 -1.8428334
31.587999 63.002998 -1.999
31.879501 63.036274 -1.8687779
32.280998 63.052002 -1.808
32.666252 63.09425 -1.8640001
32.798 63.081001 -1.786
33.102501 63.097698 -1.8754002
33.428005 63.134335 -1.873
33.5075 63.147499 -1.823
33.793999 63.142502 -1.8985
19.213554 62.487667 -1.6451111
19.315001 62.487 -1.5880001
19.617334 62.489502 -1.6376667
19.860834 62.481998 -1.6081667
20.138523 62.487499 -1.6214048
20.366043 62.488708 -1.6005833
20.5616 62.483051 -1.6308498
19.215 62.507 -1.535
19.309999 62.511002 -1.52
19.6245 62.511002 -1.5910001
20.1525 62.503502 -1.5825
20.699499 62.516502 -1.61825
20.876499 62.5345 -1.6205
21.033501 62.538002 -1.6305
21.403376 62.549004 -1.5864999
21.634001 62.549469 -1.5915334
21.86846 62.54425 -1.6272222
22.133041 62.547932 -1.6497083
22.373583 62.54575 -1.6338054
22.634956 62.549019 -1.6278957
22.876667 62.551533 -1.6284668
23.102415 62.559917 -1.6124166
23.368334 62.579903 -1.6250334
23.608501 62.607628 -1.694625
23.993 62.583 -1.683
24.100584 62.598499 -1.6484166
24.302999 62.608002 -1.706
24.57375 62.613251 -1.6965001
24.9188 62.648399 -1.6202999
25.132751 62.649498 -1.65775
25.369278 62.652618 -1.646875
25.578499 62.678253 -1.71025
25.866777 62.709072 -1.6374445
26.13921 62.72546 -1.6579167
26.396 62.731998 -1.628
26.460667 62.753166 -1.6241666
26.622198 62.762306 -1.6627667
26.852783 62.773781 -1.6305714
27.155251 62.798878 -1.6450834
27.381535 62.829529 -1.6472
27.631666 62.844635 -1.6074305
27.976831 62.888165 -1.5991668
28.158001 62.866501 -1.64425
28.594101 62.865501 -1.6161001
30.144625 62.89175 -1.640375
30.269001 62.876999 -1.56925
30.659668 62.890335 -1.75
30.778 62.914333 -1.627
31.094313 62.912498 -1.6124375
31.275 62.917 -1.631
31.972 63.027164 -1.6564999
32.359333 63.059834 -1.6081667
32.688499 63.0835 -1.6675
32.814999 63.112999 -1.589
33.087002 63.09 -1.633
33.434002 63.146164 -1.6485
33.514 63.16 -1.624
33.867573 63.188854 -1.6077858
20.156 62.495331 -1.4015001
20.36525 62.498749 -1.38
20.573917 62.490669 -1.3848333
20.848 62.494999 -1.414
19.217834 62.517582 -1.4100001
19.314165 62.522503 -1.3594999
19.55875 62.531212 -1.3502501
19.889999 62.522751 -1.398
20.200624 62.506371 -1.336375
20.36725 62.504498 -1.3747501
20.58639 62.505611 -1.309389
20.846355 62.529705 -1.3119792
21.11495 62.538097 -1.3659999
21.36552 62.546669 -1.3403749
21.631359 62.554882 -1.3766429
21.879013 62.557476 -1.3604584
22.142776 62.55003 -1.4083056
22.394081 62.565582 -1.3489166
22.618299 62.559795 -1.4176
22.86862 62.561928 -1.3576429
23.114428 62.572498 -1.3584522
23.369431 62.58403 -1.3743194
23.616312 62.603222 -1.3605708
23.806376 62.620125 -1.314625
24.100443 62.601543 -1.384537
24.468166 62.632919 -1.4106667
24.6388 62.656605 -1.3346
24.893623 62.656876 -1.3657916
25.122709 62.685337 -1.3309166
25.354 62.668404 -1.3762
25.6745 62.719002 -1.2555001
25.866375 62.724998 -1.3651874
26.084999 62.723579 -1.4124167
26.46825 62.764999 -1.3921666
26.673834 62.779499 -1.3554999
26.833 62.778412 -1.3605
27.160999 62.814335 -1.3635417
27.425541 62.828999 -1.35375
27.641523 62.845654 -1.3524643
27.904251 62.862846 -1.3362666
28.104708 62.852375 -1.3447918
28.370333 62.861668 -1.416
28.610811 62.867496 -1.3724763
30.349377 62.868374 -1.375625
30.6852 62.898903 -1.3967999
30.856056 62.914661 -1.3877778
31.100546 62.907722 -1.3906574
31.375639 62.937756 -1.3783889
31.6182 62.964195 -1.38195
31.813 63.002998 -1.387
32.098251 63.025249 -1.3954999
32.390167 63.047001 -1.3643333
32.693996 63.09367 -1.3540001
32.862751 63.0965 -1.46175
33.106125 63.126125 -1.367875
33.392498 63.123249 -1.369625
33.900249 63.179001 -1.4082501
20.076 62.487999 -1.051
20.553057 62.491611 -1.1476111
19.227112 62.531055 -1.1434444
19.375084 62.543587 -1.08175
19.585949 62.53582 -1.0956833
19.911499 62.513248 -1.0195
20.161219 62.520164 -1.0812833
20.3659 62.51223 -1.1254833
20.589027 62.511585 -1.1116667
20.893208 62.526207 -1.1202083
21.113668 62.53867 -1.1180555
25.349833 62.682171 -1.1356667
32.619751 63.084503 -1.21425
32.869698 63.097801 -1.2003
19.5825 62.533501 -0.99399996
20.181 62.514999 -0.99800003
20.58075 62.517754 -0.98224998
20.860001 62.527 -1
