# .PCD v0.7 - Point Cloud Data file format
VERSION 0.7
FIELDS x y z
SIZE 4 4 4
TYPE F F F
COUNT 1 1 1
WIDTH 83
HEIGHT 1
VIEWPOINT -18.2321 96.2205 -1.35163 -0.354149 -0.00701479 0.0211809 0.934923
POINTS 83
DATA ascii
-42.59 25.99 10.998
-42.845501 26.1689 10.9897
-42.607136 26.1341 10.9929
-42.350418 26.148792 10.994115
-42.085938 26.142084 10.995605
-41.885124 26.191124 10.996167
-43.152431 26.379572 10.978406
-42.869366 26.384024 10.980489
-42.628666 26.361416 10.983042
-42.367695 26.391584 10.983306
-42.104866 26.384899 10.985333
-41.905373 26.398083 10.986917
-41.738586 26.388916 10.99225
-43.618999 26.6633 10.963834
-43.372162 26.621668 10.966833
-43.096401 26.626633 10.967966
-42.845966 26.611866 10.971483
-42.583084 26.581583 10.974501
-42.389252 26.662376 10.971168
-42.15749 26.627348 10.974639
-41.873184 26.5828 10.979784
-41.702667 26.664667 10.976334
-43.861732 26.884968 10.953501
-43.641247 26.891792 10.955208
-43.369785 26.862883 10.957334
-43.127945 26.869749 10.958
-42.874447 26.844444 10.960639
-42.645115 26.866526 10.960612
-42.40229 26.887293 10.962334
-42.154762 26.871264 10.964096
-41.868217 26.849573 10.965953
-44.366402 27.121134 10.939367
-44.128265 27.1124 10.941867
-43.887615 27.149164 10.942417
-43.622055 27.118387 10.944501
-43.3685 27.132599 10.945401
-43.122528 27.133417 10.946556
-42.891361 27.133667 10.94711
-42.639584 27.107 10.950084
-42.369637 27.133471 10.950528
-42.092335 27.1134 10.953033
-44.583 27.375433 10.9259
-44.410126 27.3915 10.927
-44.157169 27.385071 10.928976
-43.88121 27.383167 10.932167
-43.610867 27.3699 10.9335
-43.413033 27.392532 10.933534
-43.123528 27.371237 10.935333
-42.875469 27.395277 10.935112
-42.615475 27.343946 10.938445
-42.35664 27.362528 10.938583
-44.623199 27.623901 10.913366
-44.392998 27.623199 10.915667
-44.136059 27.639832 10.916778
-43.84967 27.603594 10.921023
-43.619068 27.660603 10.919867
-43.360138 27.577391 10.924724
-43.140503 27.636835 10.921966
-42.885025 27.647528 10.922668
-44.653385 27.862555 10.902112
-44.377438 27.891249 10.90275
-44.138203 27.843466 10.9069
-43.859734 27.921032 10.904634
-43.630833 27.878916 10.908
-43.396915 27.842957 10.911015
-43.125771 27.8703 10.910667
-44.341141 28.144167 10.889694
-44.090801 28.095402 10.895001
-43.900806 28.141695 10.89225
-43.640713 28.115858 10.895143
-44.383862 28.368027 10.878083
-44.140087 28.368 10.879584
-43.908367 28.382166 10.8806
-44.380871 28.586735 10.865601
-44.138878 28.625376 10.865749
-42.577 25.938999 11
-42.365837 25.879068 11.005066
-42.131672 25.874701 11.006567
-41.948254 25.865499 11.010167
-42.37825 26.012749 11
-42.091251 26.028 11.00075
-41.841667 26.116833 11.006166
-41.771 26.257 11.002
