# .PCD v0.7 - Point Cloud Data file format
VERSION 0.7
FIELDS x y z
SIZE 4 4 4
TYPE F F F
COUNT 1 1 1
WIDTH 355
HEIGHT 1
VIEWPOINT -18.2321 96.2205 -1.35163 -0.354149 -0.00701479 0.0211809 0.934923
POINTS 355
DATA ascii
-74.892502 -32.442001 8.3249998
-74.736496 -32.283501 8.2795
-74.570496 -32.119499 8.2870007
-74.368004 -31.90325 8.2600002
-74.236 -31.759001 8.257
-74.102997 -31.639 8.302
-73.843994 -31.376499 8.2700005
-73.711998 -31.229 8.257
-75.369843 -32.868896 8.6267405
-74.889999 -32.349998 8.7290001
-74.795998 -32.247002 8.691
-74.636505 -32.114998 8.7215004
-74.375328 -31.838165 8.6998339
-74.253998 -31.704 8.6630001
-74.124504 -31.6075 8.7206659
-74.051003 -31.496 8.6669998
-73.89109 -31.356585 8.7039165
-73.765999 -31.194 8.6610003
-73.617165 -31.100998 8.7015009
-71.476997 -29.110001 8.7049999
-71.316376 -28.849125 8.6335001
-71.098755 -28.869751 8.7142506
-79.912498 -37.306499 8.9974995
-79.865997 -37.115002 8.963666
-79.622002 -37.005001 8.9879999
-79.647003 -36.945 8.9829998
-79.334999 -37 8.9860001
-79.007004 -36.683998 8.9764996
-78.582001 -36.521 8.9910002
-78.782166 -36.477165 8.8531675
-78.638664 -36.344753 8.8624163
-78.862755 -36.078403 8.8214769
-78.612083 -36.184254 8.8654175
-78.445496 -36.0905 8.9359999
-78.086998 -36.025002 8.9829998
-78.192505 -35.842499 8.9385004
-77.932999 -35.855 8.9680004
-78.079254 -35.688004 8.9055004
-77.908005 -35.575001 8.9384995
-77.678497 -35.607498 8.9705
-77.807671 -35.433334 8.9026661
-77.682503 -35.344002 8.9254999
-77.434998 -35.359501 8.9735003
-77.586998 -35.17767 8.8783331
-77.375 -35.089752 8.9198751
-77.182999 -35.0835 8.9594994
-77.364998 -34.972 8.9060001
-77.097603 -34.862301 8.9172001
-76.920998 -34.835999 8.9700003
-76.889999 -34.661003 8.9274998
-76.695 -34.603001 8.9584999
-76.419495 -34.318748 8.9507504
-76.192749 -34.088501 8.9344997
-75.920502 -33.806999 8.9559994
-75.865997 -33.626251 8.8994999
-75.690002 -33.573997 8.9230003
-75.768997 -33.422001 8.8699999
-75.627502 -33.426666 8.8981667
-75.487 -33.366249 8.9049997
-75.572998 -33.210999 8.8459997
-75.360588 -33.148582 8.8851662
-75.149994 -33.025497 8.8967495
-75.070999 -32.908249 8.8777494
-74.932999 -32.801498 8.9249992
-75.121002 -32.635002 8.7911243
-74.846504 -32.694336 8.875
-74.728752 -32.572998 8.8987503
-74.843666 -32.391331 8.7896662
-74.60231 -32.403999 8.8855
-74.408669 -32.263 8.8959999
-74.635834 -32.169498 8.7804995
-74.351242 -32.102623 8.8591251
-74.212997 -32.058998 8.90625
-74.396332 -31.927168 8.7659998
-74.054375 -31.898624 8.9057493
-73.87719 -31.664188 8.8441877
-73.698334 -31.531166 8.923667
-73.889999 -31.487 8.7740002
-73.616508 -31.371666 8.8573332
-73.48233 -31.313499 8.8661661
-73.564003 -31.108999 8.75
-73.352501 -31.169062 8.8795004
-73.190002 -31.009501 8.8538332
-73.416 -30.986 8.75
-73.098167 -30.882332 8.847333
-72.992249 -30.80825 8.7967501
-72.865356 -30.658142 8.8454285
-72.615189 -30.418121 8.8689289
-72.351753 -30.146215 8.8690357
-72.243332 -30.033001 8.9486675
-72.08017 -29.869333 8.8527508
-71.726746 -29.504749 8.8934994
-71.607498 -29.384699 8.8598995
-71.371994 -29.141714 8.8623571
-71.24575 -29.015999 8.8122501
-81.915001 -39.616001 9.0799999
-81.640121 -39.655624 9.194375
-81.773003 -39.469002 9.0699997
-81.598999 -39.420502 9.0760002
-81.410583 -39.380169 9.1609163
-81.539001 -39.221001 9.0530005
-81.36734 -39.136333 9.0776672
-81.092171 -39.094501 9.1846666
-81.263 -38.944 9.0209999
-81.162994 -38.917252 9.0650005
-80.611084 -38.601082 9.1529169
-80.392746 -38.164749 9.0482502
-80.370872 -37.872749 9.0212498
-79.837402 -37.809502 9.1268005
-79.891495 -37.6385 9.0264997
-79.638496 -37.597668 9.1448326
-79.866661 -37.457001 9.0046673
-79.554001 -37.4095 9.0389996
-79.369171 -37.327168 9.1478338
-79.404495 -37.1395 9.0100002
-78.904877 -36.855125 9.1405001
-78.855499 -36.743999 9.0295
-78.641998 -36.586498 9.1211987
-78.735001 -36.456001 9.0019999
-78.405602 -36.3433 9.1352005
-78.160835 -36.091503 9.1255007
-77.926331 -35.852669 9.1442499
-77.679001 -35.601204 9.120801
-77.5065 -35.42625 9.0960007
-77.386505 -35.304001 9.1102505
-77.289497 -35.200001 9.1497498
-77.157501 -35.071751 9.0907497
-77.047173 -34.954502 9.1496668
-76.941673 -34.845333 9.151
-76.825493 -34.728832 9.1415005
-76.651596 -34.548199 9.1328001
-76.501999 -34.390999 9.1960001
-76.4272 -34.315601 9.1302004
-76.27433 -34.158333 9.1459999
-76.150002 -34.036499 9.1100006
-76.035751 -33.919998 9.0882502
-75.932999 -33.813499 9.0889997
-75.828629 -33.703499 9.1311255
-75.713501 -33.585667 9.1501665
-75.562378 -33.431126 9.1483746
-75.416626 -33.284622 9.1263742
-75.293335 -33.154335 9.1568327
-75.176338 -33.037498 9.1463327
-75.055 -32.917503 9.0909996
-74.9515 -32.809502 9.10075
-74.820831 -32.673168 9.1405001
-74.746506 -32.598 9.1145
-74.589249 -32.435417 9.1525002
-74.433998 -32.27467 9.147666
-74.332253 -32.171001 9.0965004
-74.2285 -32.066002 9.09375
-74.078835 -31.910086 9.1438341
-73.849594 -31.676498 9.0845995
-73.722168 -31.541666 9.1433334
-73.570396 -31.388599 9.1348009
-73.496002 -31.32 9.0080004
-73.3685 -31.176416 9.1453333
-73.21917 -31.022333 9.1566668
-73.074837 -30.873665 9.1490011
-72.865631 -30.663124 9.0961246
-72.709747 -30.505749 9.0852509
-72.567368 -30.356876 9.1052494
-72.358398 -30.1418 9.1199999
-72.236832 -30.013834 9.1498327
-72.087334 -29.863581 9.1485834
-71.864502 -29.635799 9.1104994
-71.744995 -29.513 9.0609999
-71.610298 -29.374201 9.1349001
-71.362495 -29.122002 9.0929995
-81.654625 -39.663002 9.404501
-81.391998 -39.395626 9.4017496
-81.138405 -39.1357 9.3682995
-80.868797 -38.857399 9.3835011
-80.362305 -38.3354 9.3904009
-80.131599 -38.101501 9.3691998
-79.868584 -37.831501 9.3607492
-79.624123 -37.579628 9.4031258
-79.395248 -37.339874 9.3982506
-79.137169 -37.081749 9.3480005
-78.882103 -36.819599 9.3774996
-78.653419 -36.586002 9.3622503
-78.404198 -36.329796 9.3662996
-78.252502 -36.1665 9.4639997
-78.152756 -36.072376 9.3485003
-78.010002 -35.926666 9.3503332
-77.887497 -35.800499 9.4025002
-77.766335 -35.681168 9.3483334
-77.6595 -35.567249 9.4007492
-77.531334 -35.438168 9.3550005
-77.414337 -35.317001 9.3546667
-77.313248 -35.21175 9.3924999
-77.184502 -35.084499 9.3481665
-77.070007 -34.964996 9.4067497
-76.967255 -34.85775 9.4074993
-76.852501 -34.741501 9.3977499
-76.697006 -34.581299 9.3759995
-76.51767 -34.398666 9.3566666
-76.408501 -34.280251 9.4107494
-76.300247 -34.170502 9.3999996
-76.174995 -34.047832 9.359334
-76.061333 -33.931667 9.3556671
-75.961159 -33.826504 9.3428335
-75.856003 -33.716499 9.4067497
-75.716751 -33.573502 9.4293747
-75.597397 -33.4533 9.3661003
-75.413666 -33.266998 9.3625002
-75.317993 -33.165249 9.4077501
-75.198746 -33.0485 9.3959999
-75.080833 -32.929165 9.3548326
-74.980171 -32.822998 9.3501663
-74.840401 -32.677795 9.3734999
-74.611374 -32.445751 9.3994999
-74.457245 -32.285751 9.3900003
-74.318001 -32.141304 9.3789997
-74.244499 -32.073502 9.2535
-74.103371 -31.921249 9.3966255
-73.938499 -31.7535 9.3500004
-73.815247 -31.622749 9.3718758
-73.7435 -31.550999 9.3629999
-73.572006 -31.377802 9.3752003
-73.392868 -31.1875 9.3956242
-73.244003 -31.033751 9.4130001
-73.096748 -30.883625 9.4045
-72.888336 -30.6735 9.3505831
-72.733498 -30.515833 9.3578329
-72.584999 -30.365 9.3493328
-72.356186 -30.127377 9.366437
-72.110374 -29.873877 9.3998747
-71.866058 -29.624947 9.3527222
-71.613297 -29.3647 9.3672009
-71.383781 -29.131388 9.3566666
-81.409256 -39.404377 9.5948753
-81.16069 -39.147301 9.624999
-80.130699 -38.0882 9.6311007
-79.900604 -37.853901 9.6215
-79.654991 -37.599789 9.6330719
-79.398697 -37.3353 9.6280003
-79.143166 -37.074169 9.6170835
-78.928604 -36.856499 9.6197996
-78.674622 -36.596748 9.5893745
-78.510498 -36.419998 9.7404995
-78.436752 -36.352127 9.6012497
-78.26667 -36.173668 9.649333
-78.148499 -36.054749 9.6117496
-78.038841 -35.940502 9.6476669
-77.903999 -35.80825 9.6005001
-77.797829 -35.696167 9.6440001
-77.680496 -35.577251 9.6005001
-77.561752 -35.452499 9.6147499
-77.444168 -35.331669 9.6483335
-77.333496 -35.221748 9.5895004
-77.217506 -35.100666 9.6516666
-77.097664 -34.978168 9.6248331
-76.936005 -34.811749 9.6521244
-76.790375 -34.664375 9.6222506
-76.658997 -34.529499 9.6087503
-76.54525 -34.411751 9.6017494
-76.422745 -34.287251 9.6050005
-76.320839 -34.180664 9.6433334
-76.199753 -34.05975 9.6035004
-76.0895 -33.945171 9.6438332
-75.988335 -33.8395 9.630167
-75.829002 -33.6782 9.6247997
-75.667 -33.50983 9.6451674
-75.558502 -33.399376 9.6508751
-75.442169 -33.280334 9.6478338
-75.341499 -33.176998 9.6480007
-75.221748 -33.05875 9.5874996
-75.061333 -32.890251 9.6510839
-74.995003 -32.830002 9.526
-74.847145 -32.670784 9.6459274
-74.687836 -32.508499 9.6408339
-74.58783 -32.407333 9.6348333
-74.480659 -32.296497 9.6418333
-74.332253 -32.142254 9.6484165
-74.133598 -31.9408 9.6258001
-73.966339 -31.7665 9.6385002
-73.823502 -31.618999 9.6289997
-73.604874 -31.398499 9.6032505
-73.360573 -31.14407 9.6156435
-73.11541 -30.891998 9.6411667
-72.875496 -30.645622 9.6625633
-72.748505 -30.523001 9.5360003
-79.654503 -37.588299 9.891901
-79.507004 -37.428001 9.9720001
-79.442497 -37.3703 9.8632002
-79.253502 -37.170998 9.9475002
-79.186005 -37.105625 9.8478746
-79.0065 -36.922501 9.9180002
-78.905243 -36.820999 9.8491249
-78.761749 -36.668751 9.8972502
-78.66713 -36.578499 9.8311253
-78.522995 -36.426003 9.9112501
-78.403 -36.303665 9.8479996
-78.287247 -36.18375 9.8959999
-78.168663 -36.065002 9.8426666
-78.064499 -35.952499 9.9090004
-77.910248 -35.804123 9.8789997
-77.817001 -35.70575 9.823
-77.692749 -35.583752 9.8808746
-77.580833 -35.462002 9.8434992
-77.457001 -35.338249 9.901
-77.35083 -35.230167 9.8478327
-77.234756 -35.109001 9.9092503
-77.066338 -34.93433 9.847167
-76.902336 -34.765667 9.8660002
-76.785995 -34.646999 9.8629999
-76.683746 -34.555874 9.8726254
-76.562836 -34.420334 9.8461666
-76.432335 -34.2915 9.8428335
-76.321503 -34.181252 9.8759995
-76.208168 -34.064335 9.8455
-76.054626 -33.899624 9.8109999
-75.819252 -33.667877 9.8374996
-75.71225 -33.55825 9.87325
-75.57 -33.405502 9.8354998
-75.442505 -33.280998 9.8530006
-75.368004 -33.102169 9.895833
-75.242004 -33.068001 9.7649994
-75.120499 -32.902252 9.8671255
-74.838669 -32.661667 9.8253336
-74.686501 -32.508499 9.8239994
-74.911499 -32.393501 9.9445
-74.589005 -32.407997 9.8175001
-74.494507 -32.303001 9.7959995
-74.791 -32.248001 9.9580002
-74.604004 -32.075001 9.9454994
-74.349503 -32.150002 9.8125
-74.4235 -31.8715 9.9370003
-74.132004 -31.93475 9.7932491
-73.929001 -31.750999 9.8219995
-74.261002 -31.711 9.9200001
-74.110504 -31.554501 9.9335003
-73.819748 -31.612251 9.7855005
-73.858002 -31.295 9.9180002
-73.588501 -31.381666 9.7703333
-73.766998 -31.198 9.908
-73.658997 -31.091999 9.9090004
-73.357002 -31.142832 9.774333
-73.327499 -30.8305 9.9067497
-73.102997 -30.794001 9.8219995
-79.181503 -37.1045 10.032
-79.014 -36.925999 10.013
-78.818001 -36.763 10.035
-78.640999 -36.5825 10.03
-78.439499 -36.3545 10.006001
-78.214996 -35.751999 10.106
-78.005997 -35.528999 10.113
-77.853996 -35.390999 10.094
-77.733002 -35.268002 10.075
-77.574501 -35.101997 10.072001
-74.796997 -31.7855 10.099501
-74.658997 -31.695999 10.049
-74.5205 -31.941 10.4375
-74.405006 -31.815668 10.414001
