# .PCD v0.7 - Point Cloud Data file format
VERSION 0.7
FIELDS x y z
SIZE 4 4 4
TYPE F F F
COUNT 1 1 1
WIDTH 106
HEIGHT 1
VIEWPOINT -18.2321 96.2205 -1.35163 -0.354149 -0.00701479 0.0211809 0.934923
POINTS 106
DATA ascii
-49.915001 4.8479996 6.2276249
-49.636417 4.8695002 6.2345414
-50.825001 5.224 6.197
-50.583 5.1999998 6.204
-50.408001 5.1346664 6.2086663
-50.098999 5.1684999 6.2104998
-49.842247 5.1499996 6.2125001
-49.589874 5.1541252 6.2260003
-49.436501 5.1674995 6.2250004
-49.115459 5.1519585 6.2250834
-51.713001 5.3833332 6.1843333
-51.400749 5.3879995 6.1858749
-51.161625 5.3627501 6.1932502
-50.820999 5.4565001 6.1914997
-50.642334 5.3476663 6.198667
-50.370667 5.3675003 6.1985002
-50.14439 5.3613334 6.2009444
-49.91325 5.3610001 6.2032499
-49.668335 5.3870001 6.201333
-49.404861 5.3638892 6.2152219
-51.600624 5.6247501 6.1765003
-51.325001 5.5945835 6.1795001
-51.056252 5.58325 6.1835003
-50.845749 5.6152501 6.1827502
-50.639999 5.6246667 6.1836667
-50.404999 5.6278338 6.1844997
-50.133751 5.6459999 6.1867504
-49.895832 5.6228333 6.1903338
-49.605499 5.625 6.1940002
-49.335545 5.6324997 6.205976
-49.233002 5.6534996 6.2119999
-51.460003 5.836 6.1683335
-51.188698 5.8818002 6.1683002
-50.913002 5.8649001 6.1713996
-50.647221 5.8459449 6.1751666
-50.406666 5.8413334 6.178
-50.140331 5.8230004 6.1805
-49.873802 5.8758001 6.1810002
-49.614876 5.8686247 6.1853752
-49.32933 5.8794999 6.1848335
-49.146084 5.9015832 6.2036667
-51.359627 6.1481247 6.1578751
-51.106998 6.177 6.1604996
-50.862625 6.1697502 6.1609998
-50.597248 6.1286249 6.1646252
-50.331253 6.1138749 6.1691251
-50.08733 6.0707779 6.1716666
-49.827831 6.1038337 6.172667
-49.602337 6.1475005 6.1723332
-49.408001 6.1204996 6.1737499
-49.135666 6.1041665 6.1888337
-51.40733 6.3970008 6.1469998
-51.169498 6.3339 6.1489997
-50.946503 6.3850002 6.1517501
-50.666603 6.3582997 6.1556005
-50.439941 6.3593888 6.1598887
-50.1898 6.3666 6.1610003
-49.908501 6.3695002 6.1621251
-49.655251 6.3588748 6.16325
-49.380379 6.3322501 6.1637502
-49.097027 6.3579998 6.1700001
-48.97583 6.3713336 6.1821671
-48.660839 6.4230003 6.1671662
-51.216 6.6036248 6.1399999
-50.961502 6.5935001 6.1440001
-50.692669 6.5710006 6.1475005
-50.366997 6.6281004 6.1496
-50.196999 6.5475001 6.1550002
-49.897083 6.6699166 6.1490002
-49.690334 6.6184998 6.1526666
-49.449497 6.6399999 6.1521668
-49.176224 6.614778 6.1535554
-48.92767 6.6117783 6.1669998
-48.671997 6.5405002 6.1630001
-51.282166 6.8618331 6.1261668
-51.0825 6.85675 6.1282501
-50.837749 6.8326244 6.1351252
-50.535999 6.80125 6.1409998
-50.4025 6.8099999 6.1424999
-49.728333 6.9490004 6.1416664
-49.415997 6.9226665 6.1401672
-49.135166 6.8950005 6.1401668
-48.886108 6.8619885 6.156467
-48.748001 6.9860001 6.1539998
-51.056499 7.1345 6.1230001
-50.842834 7.1596665 6.1228333
-50.581207 7.1540837 6.1260419
-50.381248 7.1387496 6.1382499
-50.035 7.1690001 6.1350002
-49.889 7.0430002 6.131
-49.694748 7.107625 6.1328754
-49.408161 7.1145 6.1315002
-49.116299 7.1568999 6.1282997
-48.820652 7.1132369 6.1404443
-51.130749 7.3868752 6.1053753
-50.88517 7.3828335 6.1098337
-50.701 7.4283333 6.1085
-50.452831 7.3918333 6.1146669
-50.204834 7.3435001 6.1219997
-49.898872 7.3692503 6.1188755
-49.630669 7.3604164 6.1190834
-49.3675 7.3649998 6.1184168
-51.181168 7.5718331 6.0933328
-50.940254 7.6332917 6.0959997
-50.67767 7.6139998 6.0995002
-49.548 4.8466668 6.2516665
