# .PCD v0.7 - Point Cloud Data file format
VERSION 0.7
FIELDS x y z
SIZE 4 4 4
TYPE F F F
COUNT 1 1 1
WIDTH 85
HEIGHT 1
VIEWPOINT -18.2321 96.2205 -1.35163 -0.354149 -0.00701479 0.0211809 0.934923
POINTS 85
DATA ascii
40.852501 76.6595 -3.5079999
40.855999 76.860001 -3.5090001
40.863998 77.015999 -3.503
40.864998 77.861496 -3.556
40.87925 78.154251 -3.5402498
40.871998 76.204994 -3.4060001
40.867001 76.300003 -3.378
40.876999 76.598824 -3.4251668
40.859749 76.80275 -3.3661249
40.869499 77.087997 -3.4665
40.873253 77.4245 -3.4035001
40.855167 77.596832 -3.3658333
40.895302 77.877602 -3.418
40.897877 78.189255 -3.395875
40.903999 78.266998 -3.26
40.918999 75.958 -3.026
40.894669 76.116669 -3.1481667
40.9165 76.32975 -3.08725
40.896915 76.613831 -3.1354167
40.889599 76.843399 -3.1004002
40.892834 77.151665 -3.2123334
40.915123 77.365997 -3.1251249
40.920502 77.636002 -3.0938332
40.923103 77.902092 -3.1011002
40.907333 78.096001 -3.1413333
40.920998 78.298996 -3.1055
40.89275 78.619255 -3.177125
40.921997 75.963669 -2.8468332
40.918251 76.102997 -2.8656251
40.9245 76.406006 -2.91325
40.93 76.611 -2.8790002
40.928253 76.843002 -2.8809998
40.958 77.121124 -2.8583751
40.957401 77.391701 -2.8694
40.952 77.612 -2.9209998
40.9575 77.902252 -2.9126248
40.936169 78.082832 -2.9223335
40.924 78.439629 -2.80125
40.893833 78.653999 -2.8454998
40.93 75.977249 -2.59075
40.932503 76.094749 -2.59725
40.948498 76.312302 -2.6659999
40.969166 76.594673 -2.6359999
40.945503 76.831604 -2.6255999
40.947998 77.171249 -2.70175
40.951 77.333626 -2.6548748
40.9478 77.611305 -2.6266999
40.967903 77.934601 -2.6622
40.932999 78.052002 -2.5150001
40.946335 78.435997 -2.6660001
40.905334 78.631676 -2.6274998
40.881001 78.761253 -2.6142502
40.937 75.989243 -2.395
40.934624 76.097626 -2.3790002
40.952835 76.353584 -2.3684168
40.947502 76.508499 -2.2995
40.951199 76.828804 -2.3771
40.944748 77.095001 -2.362375
40.942375 77.31675 -2.3415
40.942627 77.642624 -2.3783751
40.931374 77.851501 -2.3887501
40.93 78.114372 -2.4081249
40.912376 78.381744 -2.3453751
40.895 78.654663 -2.3796666
40.8815 78.828377 -2.3501248
40.936001 75.987 -2.243
40.925442 76.113167 -2.0893891
40.945 76.442001 -2.14275
40.963001 76.537003 -2.0880001
40.937599 76.930801 -2.1607001
40.934502 77.005005 -2.1145
40.925167 77.426506 -2.0748332
40.91925 77.567253 -2.0775001
40.912403 77.935097 -2.1515999
40.903 78.084999 -2.075
40.89986 78.353432 -2.1166427
40.86533 78.686165 -2.0705001
40.914749 76.195 -1.8627499
40.910999 76.317001 -1.773
40.9175 76.675705 -1.8436
40.915333 76.878998 -1.8126665
40.915901 77.131699 -1.8447001
40.8965 76.350998 -1.7165
40.895 76.542999 -1.725
40.896999 76.933998 -1.748
