# .PCD v0.7 - Point Cloud Data file format
VERSION 0.7
FIELDS x y z
SIZE 4 4 4
TYPE F F F
COUNT 1 1 1
WIDTH 289
HEIGHT 1
VIEWPOINT -18.2321 96.2205 -1.35163 -0.354149 -0.00701479 0.0211809 0.934923
POINTS 289
DATA ascii
6.1544118 -30.88764 -0.14946839
6.2874408 -30.780716 -0.086904764
6.5096664 -30.516998 -0.042666666
6.7876954 -30.064121 -0.094865791
6.7376008 -29.9662 -0.0077999993
6.8885303 -29.872208 -0.11688907
6.1103954 -30.866365 0.11351768
6.2376719 -30.664953 0.15610015
6.311729 -30.595821 0.099614732
6.4421229 -30.369902 0.14029115
6.5790734 -30.272543 0.099455714
6.6342635 -30.108166 0.15034246
6.740283 -29.957542 0.096825011
6.8190618 -29.834005 0.13622576
6.1412487 -30.86297 0.39114043
6.2642498 -30.77 0.38374999
6.2307763 -30.672226 0.3558301
6.3416619 -30.617056 0.39796078
6.5 -30.5065 0.41149998
6.4331942 -30.394711 0.37582123
6.5846901 -30.33367 0.39304745
6.6706886 -30.132666 0.3992869
6.7936764 -30.042772 0.38379526
6.7368889 -29.949902 0.28635418
6.8589029 -29.86105 0.37359279
6.0890522 -30.861565 0.62669694
6.2076983 -30.68429 0.65159649
6.2962799 -30.558056 0.62729645
6.4158483 -30.427431 0.63777095
6.50565 -30.429033 0.64813334
6.4878974 -30.156199 0.62574446
6.6096463 -30.08666 0.63818973
6.748333 -29.921501 0.7008667
6.8130736 -29.823587 0.63625252
6.9296355 -29.653051 0.63318294
6.1319265 -30.865856 0.87373447
6.2600183 -30.75716 0.87623221
6.2067795 -30.682865 0.86268842
6.3418021 -30.586723 0.86173457
6.4238424 -30.388914 0.86957037
6.5624027 -30.339813 0.85552526
6.48875 -30.2435 0.75075001
6.6106734 -30.167536 0.87860066
6.7891169 -30.045383 0.83756661
6.7065625 -29.95702 0.92073607
6.8736205 -29.854622 0.84988993
6.9132981 -29.658663 0.91688812
6.074389 -30.845646 1.1396879
6.1954465 -30.676435 1.1456759
6.2845283 -30.550739 1.1278443
6.4096427 -30.366419 1.1448942
6.5890903 -30.156187 1.1289909
6.7053375 -29.95195 1.1424626
6.8006201 -29.812819 1.1109878
6.922483 -29.638546 1.1439164
6.1186981 -30.867224 1.3634231
6.2568097 -30.757322 1.3084049
6.1857834 -30.686468 1.4103523
6.3374376 -30.581161 1.3412921
6.4203572 -30.397884 1.3829244
6.5331631 -30.393608 1.3012758
6.4873281 -30.144661 1.4544555
6.6377196 -30.119324 1.3541224
6.7875004 -30.028778 1.2807778
6.6990538 -29.988926 1.4102383
6.8481417 -29.852732 1.3278481
6.9058986 -29.662693 1.3850323
6.0492196 -30.849052 1.6385138
6.1771398 -30.670231 1.6371939
6.2717171 -30.568985 1.6141802
6.3774686 -30.424582 1.6216848
6.4876699 -30.160156 1.5877467
6.6144509 -30.088654 1.644437
6.7510624 -30.041061 1.7358123
6.6878133 -29.9893 1.5971667
6.8188496 -29.855537 1.664204
6.9066668 -29.670715 1.6162055
5.9984999 -30.893 1.901
6.0863929 -30.841732 1.8657748
6.2512503 -30.755501 1.7613332
6.188684 -30.660299 1.8958486
6.3344698 -30.557049 1.7859828
6.3837805 -30.378429 1.8690219
6.5407333 -30.343102 1.7541252
6.4849448 -30.2005 1.8913889
6.5985274 -30.108559 1.8657972
6.7019796 -29.901703 1.8840154
6.7776747 -29.826853 1.8406029
6.8906655 -29.642874 1.856472
5.9975834 -30.885708 2.0934167
6.0887856 -30.837284 2.1360946
6.2030482 -30.651928 2.1106715
6.3433075 -30.57831 2.1979909
6.3841662 -30.393122 2.1164558
6.5366006 -30.312141 2.1922247
6.4934001 -30.171001 2.08075
6.6287236 -30.107849 2.1448746
6.703815 -29.909775 2.0920255
6.8201013 -29.855192 2.1505904
6.8982453 -29.659742 2.1181827
6.0598693 -30.805847 2.3590372
6.1837254 -30.651552 2.3622112
6.2543998 -30.549601 2.2768002
6.3630099 -30.403687 2.3564396
6.4772086 -30.119848 2.3591831
6.5302076 -30.063717 2.3316169
6.4786668 -29.995333 2.4046667
6.6645923 -29.930418 2.3628943
6.7749619 -29.765139 2.3547065
6.8789582 -29.616554 2.3589673
5.9984999 -30.8855 2.7395
6.0948987 -30.801188 2.6200299
6.1921978 -30.640944 2.6349323
6.2983942 -30.623817 2.6673436
6.3803325 -30.389227 2.6128032
6.5163336 -30.326168 2.6433334
6.4787645 -30.157223 2.6212904
6.6003485 -30.105003 2.6575007
6.6767178 -29.915958 2.6366117
6.8134542 -29.84429 2.6204181
6.8937516 -29.644348 2.6283376
6.039299 -30.797195 2.8495693
6.1485853 -30.631332 2.8758588
6.3258595 -30.379698 2.8596122
6.4489412 -30.207621 2.8699861
6.5677848 -30.106165 2.8976238
6.6610875 -29.898438 2.8848898
6.7648468 -29.756174 2.8489339
6.868021 -29.606571 2.8849592
5.9914999 -30.844501 3.1117501
6.0922699 -30.79365 3.1197441
6.1617184 -30.639427 3.1163583
6.3055558 -30.561501 3.1179581
6.2478824 -30.448767 3.2494705
6.3809862 -30.375555 3.1250231
6.5135002 -30.317501 3.10625
6.4652758 -30.134863 3.1256311
6.5928903 -30.11158 3.0989389
6.6612616 -29.898739 3.1009502
6.8211865 -29.83956 3.0896418
6.8674045 -29.646502 3.1155336
5.9835963 -30.812796 3.3753238
6.0215955 -30.770821 3.285759
6.1270118 -30.613535 3.3694758
6.2411613 -30.452526 3.40185
6.3671117 -30.315758 3.356221
6.4726663 -30.082861 3.4181528
6.5228 -30.042698 3.4555001
6.4780006 -29.956938 3.3041248
6.6643372 -29.893984 3.3608384
6.8136668 -29.804832 3.49525
6.7477059 -29.747004 3.3535879
6.858078 -29.608953 3.3687925
5.9859171 -30.80121 3.6377497
6.1118765 -30.786053 3.5779228
6.1411405 -30.64389 3.6152256
6.3000317 -30.553116 3.5755451
6.2383456 -30.447767 3.697772
6.3655257 -30.34837 3.6006913
6.506 -30.305 3.546
6.4562726 -30.134676 3.6656868
6.5952735 -30.103903 3.5946584
6.6582308 -29.88254 3.6457283
6.8166156 -29.821291 3.5425587
6.7428575 -29.738573 3.5822859
6.8661327 -29.607166 3.6295509
6.9570737 -29.428181 3.6662781
5.9887486 -30.782639 3.8476257
6.0320001 -30.816 3.9920001
6.105906 -30.661638 3.8854382
6.2821999 -30.527399 3.9769001
6.2350931 -30.452042 3.8857541
6.3381677 -30.348236 3.8814781
6.4460897 -30.160402 3.8773978
6.5706801 -30.110378 3.9209216
6.6532521 -29.87561 3.8784239
6.8138061 -29.813334 3.9725094
6.7366672 -29.748333 3.9136667
6.8579211 -29.623726 3.8892996
6.9391952 -29.446184 3.858463
6.0805249 -30.816952 4.1193252
6.1540504 -30.645676 4.1478944
6.2960181 -30.537609 4.0306253
6.2300005 -30.446081 4.2271671
6.3653579 -30.371599 4.1047339
6.420526 -30.198582 4.1966772
6.5568953 -30.093399 4.0974073
6.6506333 -29.893745 4.1480165
6.7677279 -29.77269 4.111022
6.7271147 -29.683281 4.2276769
6.8607268 -29.623291 4.1157618
5.9205995 -30.785933 4.3190002
6.0527496 -30.797249 4.4352503
5.9663558 -30.703676 4.3138332
6.1226482 -30.631788 4.3840518
6.2834473 -30.538975 4.4560919
6.1791162 -30.404322 4.3091216
6.3329935 -30.348999 4.3956161
6.4126415 -30.132988 4.3702083
6.5677834 -30.102324 4.4251208
6.4795713 -29.964119 4.2965717
6.6298099 -29.874952 4.3852057
6.780333 -29.802835 4.4057145
6.7073894 -29.694113 4.3496113
6.8523088 -29.624523 4.3958488
7.013 -29.5165 4.4040003
6.9195771 -29.425787 4.3668962
5.988555 -30.751112 4.5512223
6.0630002 -30.848 4.5120001
5.9866667 -30.748001 4.6920834
6.0867558 -30.634783 4.6210804
6.1978869 -30.454458 4.6473217
6.2929063 -30.321585 4.6440368
6.4112749 -30.154493 4.649827
6.5273304 -30.075176 4.5990548
6.6075521 -29.863995 4.6401591
6.7196574 -29.70059 4.6752195
6.7992668 -29.589361 4.61835
6.9199686 -29.418192 4.6503701
5.9780002 -30.751669 4.8808336
6.105 -30.833 4.8610001
5.9783077 -30.744387 4.9513845
6.1089225 -30.636433 4.8877058
6.2802501 -30.533583 4.8584585
6.1977816 -30.442219 4.9219794
6.3473573 -30.348555 4.9064145
6.4254189 -30.150108 4.8824596
6.5527239 -30.111994 4.8639202
6.4889998 -29.999001 4.9990001
6.6392016 -29.868345 4.8762107
6.7601814 -29.839001 4.8736367
6.7383018 -29.713861 4.9022079
6.8369522 -29.626263 4.8691521
6.9380836 -29.391878 4.8974628
5.9615874 -30.794613 5.1696873
6.0550709 -30.861383 5.1642327
5.9697137 -30.748287 5.0392852
6.0969043 -30.634634 5.1438479
6.2012186 -30.427814 5.0868378
6.2854443 -30.307114 5.1399541
6.4064193 -30.147274 5.1500297
6.5022221 -30.152887 5.1342778
6.4890275 -29.995642 5.1435833
6.5920544 -29.857738 5.1385212
6.9290242 -29.373737 5.1319919
5.8990121 -30.876356 5.382668
5.9734659 -30.731791 5.3664503
6.1043677 -30.573683 5.3530374
6.2041311 -30.411339 5.3905997
6.3249431 -30.35314 5.3361497
6.4153838 -30.153503 5.4022975
6.5616255 -30.077539 5.3315697
5.7442045 -31.065809 5.7165623
5.8120003 -31.107 5.6919999
5.8619323 -30.874521 5.6264172
6.0209999 -30.813002 5.5193338
5.9721146 -30.708456 5.6254063
6.1077957 -30.603411 5.6352539
6.2012649 -30.396009 5.5919843
6.2823219 -30.271978 5.6481338
6.3876338 -30.164408 5.6352973
5.5922003 -31.298378 5.9506917
5.6909575 -31.113316 5.8654666
5.833818 -31.037548 5.7599998
5.8652835 -30.891441 5.8905053
5.9631534 -30.706457 5.8261943
6.0589643 -30.578138 5.8723178
6.1922412 -30.397017 5.8584628
6.3282461 -30.362118 5.8194938
6.3817616 -30.153732 5.8802915
5.5347404 -31.31496 6.1244931
5.6754761 -31.153301 6.1195827
5.8384686 -30.885435 6.129652
6.0267 -30.752897 6.0602999
5.9616499 -30.704792 6.1767654
6.0727491 -30.606207 6.1286869
6.1702957 -30.405571 6.1110935
6.305017 -30.3505 6.1338501
5.6566892 -31.135923 6.3625827
5.8183746 -31.03075 6.4111247
5.8408771 -30.87496 6.3887453
5.9507465 -30.705019 6.3976746
6.1059394 -30.56081 6.3474545
6.1848607 -30.413515 6.3147082
5.8508015 -30.889139 6.6386967
6 -30.823 6.7160001
5.9441075 -30.695995 6.5896912
6.0557141 -30.608486 6.6199136
6.0884442 -30.485666 6.6264443
