# .PCD v0.7 - Point Cloud Data file format
VERSION 0.7
FIELDS x y z
SIZE 4 4 4
TYPE F F F
COUNT 1 1 1
WIDTH 230
HEIGHT 1
VIEWPOINT -18.2321 96.2205 -1.35163 -0.354149 -0.00701479 0.0211809 0.934923
POINTS 230
DATA ascii
66.339256 100.1965 -0.36291668
65.919197 100.466 -0.36800003
66.151024 100.31575 -0.35402086
65.411438 100.67843 -0.36456251
65.61525 100.57037 -0.33500004
65.788666 100.53167 -0.39499998
64.935204 100.9536 -0.37419999
65.128838 100.87821 -0.36755559
65.277 100.7975 -0.42549998
64.475494 101.24651 -0.41049999
64.625938 101.16861 -0.34916666
64.843399 101.0608 -0.34540001
64.372421 101.33709 -0.36075005
66.336502 100.192 -0.16150001
65.948997 100.447 -0.18799999
66.155373 100.31475 -0.184875
65.3825 100.64999 -0.15300001
65.61113 100.561 -0.139125
65.884727 100.57351 -0.15761112
66.123749 100.59612 -0.062749997
64.960495 100.9295 -0.1505
65.068001 100.833 -0.14325
65.337334 100.88999 -0.132
65.616669 100.91266 -0.10533333
65.846756 100.83025 -0.031249998
64.550003 101.14751 -0.18099999
64.865669 101.09433 -0.18233335
65.114128 101.19163 -0.063124999
65.338501 101.0525 -0.1015
65.515999 101.006 -0.052000001
64.331001 101.3485 -0.2185
64.609001 101.40917 -0.112
64.846931 101.32928 -0.072642855
64.383171 101.59234 -0.098499991
64.542 101.527 -0.076000005
65.944839 100.68475 0.09525001
66.112 100.6155 0.15450001
66.258377 100.52812 0.1135
65.404663 100.99283 0.13333334
65.672997 100.93456 0.13942857
65.841003 100.8046 0.14000002
65.128189 101.19244 0.13275
65.315834 101.08778 0.13850001
65.525253 101.02075 0.094500005
64.661163 101.467 0.14233334
64.869667 101.33157 0.15608333
64.374504 101.60136 0.11857142
64.546997 101.53533 0.134
65.953835 100.68667 0.33849999
66.147255 100.60159 0.38719442
66.289665 100.522 0.347
65.406998 100.99651 0.41350001
65.671501 100.9435 0.39116669
65.818398 100.8175 0.35190001
65.143257 101.19767 0.39654762
65.353996 101.07534 0.35966668
65.553497 101.0285 0.37424999
64.666 101.47467 0.39416668
64.868378 101.33875 0.38087502
64.551498 101.542 0.40675002
65.919495 100.705 0.58274996
66.116898 100.6332 0.65075004
66.304253 100.51725 0.57875001
65.657661 100.97466 0.57766664
65.184998 101.1873 0.62730002
65.620895 101.0641 0.64579999
64.712753 101.4565 0.632375
64.905251 101.32568 0.64256251
65.068001 101.25467 0.65266663
64.590599 101.53239 0.6552
66.397804 100.453 0.86849993
65.925003 100.71333 0.85566664
66.153122 100.62201 0.87600005
66.312668 100.531 0.85166669
65.869995 100.8375 0.86999995
65.17617 101.19684 0.93055558
65.370003 101.06493 0.86035717
65.683998 101.0775 0.88299996
65.799995 101.03467 0.83133334
64.745621 101.45312 0.88924998
64.927139 101.33189 0.86076659
65.07225 101.26151 0.88499999
64.602875 101.53387 0.91075003
66.414505 100.44879 1.1328001
65.929001 100.71976 1.086
66.125168 100.64645 1.1294446
66.314751 100.53325 1.0847499
65.60675 100.9585 1.1125
65.830086 100.83932 1.1500833
65.148338 101.22 1.1513333
65.346786 101.0865 1.1027143
65.624001 101.029 1.2359999
64.747498 101.45625 1.12
64.884933 101.36163 1.156
65.054497 101.27325 1.161
66.419502 100.44684 1.3391666
65.937668 100.73267 1.3596667
66.133186 100.65022 1.3483181
66.34417 100.52934 1.3514999
65.821999 100.89231 1.3569334
65.185448 101.2114 1.4066111
65.365128 101.08916 1.3501666
65.681503 101.11675 1.383
65.768997 101.092 1.3865
64.742004 101.47333 1.4403334
64.866699 101.38551 1.3784001
65.022751 101.30187 1.36725
66.445 100.43567 1.6536666
65.946999 100.746 1.527
66.087082 100.69121 1.6096251
66.306084 100.56337 1.5911666
65.703003 100.99001 1.553
65.899086 100.86991 1.6484166
65.187401 101.222 1.6734002
65.377998 101.09686 1.6228572
65.807129 101.11176 1.6375
64.868973 101.40179 1.6364763
65.055695 101.298 1.6421
64.618164 101.55866 1.6459999
66.08564 100.69989 1.8411943
66.317497 100.56371 1.8653573
65.929497 100.82417 1.8793334
65.198128 101.224 1.8875
65.375557 101.118 1.8873334
65.598999 101.14175 1.9602499
65.853188 101.0975 1.8334373
64.853874 101.4215 1.850125
65.045296 101.3132 1.8638999
65.676003 101.253 1.799
64.59169 101.58287 1.9037499
66.095413 100.70363 2.1140418
66.336754 100.55842 2.1047499
65.220001 101.22099 2.1399999
65.377129 101.12495 2.1192501
64.895065 101.40819 2.1166248
65.095284 101.29643 2.1627858
64.624397 101.57301 2.1331
65.907997 100.687 2.451
66.108253 100.67094 2.3645627
65.646172 100.90384 2.4358332
65.865669 100.78 2.4069998
65.167999 101.2093 2.4296999
65.3722 101.10469 2.4124999
65.528503 101.025 2.427
64.746498 101.4545 2.4229999
64.892128 101.37463 2.3490624
65.075745 101.306 2.3195
64.6185 101.56512 2.3539376
65.941498 100.739 2.5774999
66.132858 100.62682 2.6159286
65.671165 100.94275 2.6053333
65.848335 100.80667 2.6295834
65.195602 101.2058 2.6473999
65.395836 101.10075 2.6387498
65.530327 101.02767 2.6366665
64.749504 101.46025 2.5487499
64.897003 101.35107 2.6092856
65.070747 101.25826 2.60675
64.582451 101.58655 2.648
66.123001 100.64215 2.8574002
65.666374 100.95538 2.8223748
65.853355 100.83672 2.8780713
65.148605 101.2238 2.8166001
65.366997 101.107 2.8963568
65.532501 101.03175 2.9102499
64.885231 101.37723 2.8448184
65.071999 101.261 2.8800001
64.630188 101.57288 2.8868124
65.977333 100.698 3.0931666
66.141327 100.58334 3.1083333
65.689247 100.97025 3.0869999
65.842636 100.86637 3.1129668
65.146172 101.1746 3.1192224
65.377434 101.06615 3.139714
65.5606 101.01759 3.1264999
64.903732 101.36674 3.0870717
64.626862 101.59968 3.1460454
65.984497 100.662 3.3935001
66.127594 100.59451 3.3450999
65.488998 100.9645 3.4335001
65.624199 100.9626 3.3616002
65.857452 100.86482 3.3456819
65.108299 101.1927 3.3546002
65.345581 101.063 3.4002502
65.612 101.01151 3.2955
64.938225 101.36883 3.3494444
65.077003 101.269 3.256
64.412361 101.63728 3.3970711
64.62883 101.54633 3.411
64.75 101.538 3.26
65.990997 100.6715 3.5599999
66.140686 100.60343 3.6239374
66.362663 100.53827 3.6140666
65.488998 100.965 3.6433334
65.646721 100.9055 3.6130002
65.865494 100.8754 3.6170998
65.105438 101.1965 3.6114373
65.34256 101.05833 3.6455557
64.626495 101.483 3.7024999
64.947502 101.37391 3.5874999
65.007004 101.32 3.6949999
64.42543 101.63772 3.6154284
64.577499 101.539 3.6412501
66.197998 100.63 3.86325
65.489502 100.966 3.8534999
65.635391 100.896 3.8538332
65.874168 100.8725 3.8596668
66.002998 100.834 3.967
65.165497 101.17413 3.8610001
65.347588 101.06666 3.8908336
64.668007 101.4795 3.839
64.889198 101.4369 3.8518002
65.044289 101.32928 3.8655715
64.546997 101.535 3.8715
66.150375 100.65737 4.0506248
65.652 100.91367 4.0203333
65.866898 100.87801 4.1135998
66.089996 100.81799 4.0900002
65.182495 101.2005 4.0100002
65.389603 101.1966 4.1517997
65.613251 101.08524 4.0892501
64.939087 101.44809 4.0765834
65.125198 101.3754 4.0740004
65.329002 101.2765 4.1304998
64.637253 101.6305 4.0496249
64.813995 101.562 4.0244999
65.397499 101.19784 4.4318337
64.937248 101.4705 4.3172503
65.363998 101.255 4.3299999
64.932999 101.502 4.4439998
