# .PCD v0.7 - Point Cloud Data file format
VERSION 0.7
FIELDS x y z
SIZE 4 4 4
TYPE F F F
COUNT 1 1 1
WIDTH 70
HEIGHT 1
VIEWPOINT -18.2321 96.2205 -1.35163 -0.354149 -0.00701479 0.0211809 0.934923
POINTS 70
DATA ascii
-41.542412 15.577709 -1.1049514
-42.029499 15.749 -0.83000004
-41.580864 15.547612 -0.91410005
-41.708046 15.389511 -0.62713051
-42.07098 15.706429 -0.6495778
-41.837669 15.551083 -0.64491671
-41.681408 15.372813 -0.36518705
-42.071751 15.707125 -0.481125
-41.831448 15.635983 -0.39085415
-41.72131 15.532823 -0.38542223
-42.075081 15.87864 -0.35977978
-41.949501 15.7585 -0.39133334
-41.754456 15.372262 -0.11559524
-41.684063 15.384194 -0.10619932
-42.030888 15.658557 -0.16177778
-41.866165 15.699167 -0.031750001
-41.736935 15.518666 -0.14653334
-42.093758 15.853476 -0.12944999
-41.940998 15.7845 -0.038000003
-41.759499 15.38325 0.23324999
-41.689217 15.37708 0.14643888
-42.073997 15.726 0.0955
-41.85014 15.638791 0.082555555
-41.716351 15.532166 0.064316668
-42.099083 15.897971 0.14960627
-41.942665 15.782499 0.047666669
-41.764999 15.394 0.48899999
-41.681149 15.381886 0.36790013
-42.054001 15.703 0.31400001
-41.832752 15.665144 0.37457141
-41.7127 15.534666 0.36231667
-42.07951 15.859841 0.38519061
-41.950836 15.762501 0.39450002
-41.772499 15.396 0.65999997
-41.724049 15.395066 0.63313502
-42.04805 15.715099 0.60864997
-41.822498 15.681 0.74150002
-41.733921 15.542305 0.64759725
-42.082569 15.871415 0.62256843
-41.953503 15.798 0.71600002
-41.857212 15.664178 0.85024995
-41.707336 15.54023 0.8490833
-42.082993 15.871452 0.90474582
-41.919624 15.788376 0.81174999
-41.667183 15.401225 1.1326984
-41.81282 15.673809 1.1593184
-41.70599 15.546684 1.1699156
-42.090481 15.908914 1.1018928
-41.928082 15.806417 1.1524167
-41.69825 15.4325 1.3950167
-41.425976 15.305179 1.3719112
-41.886002 15.68189 1.3845
-41.71434 15.558258 1.3845917
-42.080269 15.878491 1.3646177
-41.478863 15.184288 1.6130927
-41.752834 15.472 1.6478333
-41.690498 15.406475 1.5821251
-41.439003 15.304334 1.7023335
-41.841473 15.673833 1.6052638
-41.722561 15.563231 1.6737659
-42.070583 15.882298 1.6171632
-41.946163 15.778999 1.6941668
-41.751999 15.488 1.814
-41.617985 15.41906 1.8571945
-41.45261 15.293139 1.9145833
-41.818001 15.7225 1.8214999
-41.706032 15.606539 1.8932779
-42.030212 15.898725 1.8234129
-41.912697 15.844468 1.9054896
-41.682835 15.637405 2.1205556
