# .PCD v0.7 - Point Cloud Data file format
VERSION 0.7
FIELDS x y z
SIZE 4 4 4
TYPE F F F
COUNT 1 1 1
WIDTH 469
HEIGHT 1
VIEWPOINT -18.2321 96.2205 -1.35163 -0.354149 -0.00701479 0.0211809 0.934923
POINTS 469
DATA ascii
70.669998 101.494 -5.0599999
70.858253 101.38325 -5.0787497
71.039001 101.277 -5.053
70.377296 101.66299 -5.0648003
70.536743 101.565 -5.0854998
69.921837 101.93116 -5.0728335
70.104996 101.8195 -5.0675001
69.475998 102.201 -5.0560002
69.618996 102.10067 -5.0359998
69.767998 102.017 -5.0840001
69.158333 102.37534 -5.0493331
69.304329 102.2825 -5.0858331
68.159996 102.926 -5.0953331
67.850693 103.1591 -5.0661001
68.107254 103.0325 -5.0395002
67.592834 103.32517 -5.0576668
66.670372 103.87437 -5.0464997
66.822998 103.78001 -5.0523334
66.307999 104.0605 -5.0235
71.190292 101.1949 -4.8579001
70.709999 101.472 -4.9162502
70.875435 101.37543 -4.8870711
71.042336 101.28167 -4.8373332
70.36734 101.68073 -4.8570004
70.615501 101.5374 -4.8749995
69.916748 101.9415 -4.8661251
70.117424 101.82458 -4.8687501
69.477997 102.2035 -4.9285002
69.636116 102.10539 -4.8622594
69.774002 102.026 -4.8260002
68.948502 102.495 -4.9425001
69.150673 102.38603 -4.8879762
69.332748 102.27875 -4.8388748
68.89933 102.53167 -4.8826666
68.235001 102.98401 -4.8730006
68.386597 102.88213 -4.9051666
67.89212 103.15257 -4.8723121
68.126999 103.0464 -4.8662004
67.397797 103.46271 -4.8511
67.709999 103.27283 -4.8404999
67.786003 103.252 -4.7610002
66.955666 103.72666 -4.8710003
67.258667 103.55433 -4.8566666
66.704597 103.873 -4.8568001
66.846001 103.78983 -4.8511662
66.175583 104.18975 -4.8630834
66.344498 104.05937 -4.8577499
66.041878 104.29475 -4.9180002
65.412003 104.58501 -4.8004999
64.999001 104.832 -4.7729998
65.080002 104.789 -4.7659998
71.167603 101.21443 -4.6430669
70.858673 101.39658 -4.6543636
71.044998 101.285 -4.6210003
70.249008 101.74834 -4.6450005
70.3927 101.6694 -4.5995002
70.579697 101.55901 -4.6162996
69.892624 101.96213 -4.6143751
70.099503 101.8395 -4.596313
69.44622 102.22495 -4.6297779
69.635979 102.11611 -4.5980835
69.773003 102.024 -4.6550002
69.102997 102.42155 -4.6473331
69.307205 102.3223 -4.6033001
68.918167 102.53133 -4.6355
68.237 102.988 -4.6999998
68.39257 102.89264 -4.6612859
67.927307 103.13551 -4.6411877
68.154938 103.04585 -4.6123571
67.448502 103.44675 -4.6199999
67.720993 103.3165 -4.6259999
67.794006 103.2635 -4.5465002
67.336334 103.50867 -4.6576667
66.71283 103.87433 -4.6528335
66.849373 103.79463 -4.6142502
66.177124 104.19138 -4.601625
66.371071 104.05936 -4.6412859
66.047173 104.3025 -4.6345
65.185501 104.7215 -4.7250004
65.38784 104.63491 -4.6595559
65.546333 104.55868 -4.6523328
64.971001 104.932 -4.6066666
65.100937 104.84801 -4.6055002
65.259995 104.765 -4.6075001
64.142998 105.406 -4.506
71.179001 101.239 -4.4534998
71.335373 101.1765 -4.3878751
70.899857 101.43221 -4.4184289
71.066605 101.36861 -4.3863997
71.264 101.277 -4.336
70.416 101.737 -4.428
70.626297 101.62569 -4.4132996
70.790497 101.5865 -4.381
69.963997 101.993 -4.4260001
70.084747 101.9025 -4.4510002
70.321754 101.82775 -4.3629999
70.575996 101.805 -4.2529998
69.653999 102.19766 -4.3513336
69.817398 102.1651 -4.3755002
69.199669 102.46116 -4.4131665
69.391884 102.38478 -4.3461113
69.589798 102.3048 -4.3660002
69.757004 102.295 -4.3509998
68.948807 102.59239 -4.3694
69.107872 102.52325 -4.3740001
68.244003 102.996 -4.3540001
68.404999 102.89462 -4.411375
67.928192 103.14594 -4.3995004
68.163712 103.08199 -4.3835711
68.252998 103.009 -4.2709999
67.437668 103.47867 -4.3956671
67.721001 103.317 -4.4949999
67.792999 103.262 -4.3730001
67.129799 103.59819 -4.342
67.341499 103.51649 -4.4425001
66.846329 103.815 -4.3926663
66.170624 104.20075 -4.3807497
66.351921 104.08067 -4.3575001
66.530998 104.006 -4.3210001
66.052597 104.3276 -4.3848
65.39534 104.6758 -4.4027085
65.564255 104.58725 -4.4152498
64.977333 104.94199 -4.3486667
65.0895 104.87461 -4.3659
65.259506 104.765 -4.4134998
63.990501 105.4935 -4.4155002
64.10675 105.42825 -4.3998752
64.30896 105.3035 -4.3867502
63.6605 105.69751 -4.3752499
63.845997 105.58433 -4.37925
63.177998 105.97534 -4.3730001
63.400333 105.85166 -4.3473334
63.544502 105.75951 -4.3565001
71.067001 101.45 -4.052
71.254997 101.263 -4.1609998
70.695 101.6055 -4.2024999
70.857002 101.53101 -4.217
70.194252 101.94875 -4.1444998
69.869164 102.105 -4.1665001
70.080002 102.008 -4.0050001
69.236 102.4625 -4.191
69.380501 102.40575 -4.1505003
69.613998 102.32375 -4.1490002
68.917503 102.61125 -4.1219997
69.095497 102.54106 -4.114367
69.281998 102.53 -4.066
68.40683 102.89642 -4.1313334
67.891243 103.184 -4.1414165
68.087639 103.08671 -4.1200714
68.251755 103.0065 -4.1184998
67.432999 103.494 -4.2389998
67.814003 103.293 -4.2459998
66.152 104.2355 -4.0857501
66.367874 104.07944 -4.1443129
66.549339 104.03367 -4.1506667
66.056496 104.2984 -4.1293998
65.39492 104.68116 -4.1485004
65.559998 104.57867 -4.1349998
64.950165 104.95516 -4.0949998
65.11763 104.86259 -4.140666
65.265999 104.77433 -4.1339998
64.130714 105.42448 -4.1372857
64.323196 105.30811 -4.1731005
63.669083 105.69708 -4.1585832
63.872997 105.57581 -4.158875
63.183746 105.98425 -4.0935001
63.424004 105.85 -4.1719999
63.549667 105.76767 -4.1420002
62.983002 106.155 -4.1279998
63.077251 106.06863 -4.0869999
62.67025 106.39825 -4.0922499
62.762001 106.464 -4.1160002
71.054001 101.43 -3.967
69.694 102.201 -3.829
69.182755 102.46025 -3.8540001
69.369667 102.35099 -3.9136667
69.556335 102.36868 -3.9086666
68.937752 102.60026 -3.869
69.082497 102.539 -3.9089999
69.264999 102.506 -3.977
68.421997 102.896 -3.8899999
67.897247 103.1925 -3.9123335
68.085426 103.09379 -3.8852141
68.254669 103.01101 -3.8383334
67.725998 103.324 -3.9779999
67.7985 103.26849 -3.9419999
66.184219 104.20901 -3.916111
66.367828 104.09017 -3.8984165
66.5345 104.00975 -3.9124999
66.067726 104.30015 -3.8388574
65.387466 104.69399 -3.880033
65.563507 104.5835 -3.9190001
64.943001 104.972 -3.904
65.139 104.86121 -3.8757858
65.272507 104.784 -3.9184999
64.441498 105.24475 -3.91325
64.846619 105.02788 -3.8508749
64.153244 105.422 -3.8880002
64.337372 105.314 -3.9181252
63.664997 105.71106 -3.9050553
63.863598 105.5896 -3.8995335
64.000504 105.509 -3.921
63.190002 105.994 -3.8566666
63.409668 105.866 -3.8455
63.554001 105.77367 -3.8698332
63.071503 106.05801 -3.8610001
62.838249 106.637 -3.8635001
69.307999 102.414 -3.6710002
68.968002 102.6855 -3.628
69.086838 102.57183 -3.6444168
68.401001 102.93678 -3.6336427
67.922249 103.17775 -3.6522501
68.114624 103.09676 -3.6261873
68.2575 103.0145 -3.6224999
67.733002 103.334 -3.5480001
67.826836 103.25767 -3.6373336
66.162003 104.249 -3.675
66.421753 104.08475 -3.6760001
66.540337 104.019 -3.6326666
66.076195 104.2997 -3.5925
65.409393 104.6946 -3.6167998
65.552002 104.60525 -3.6123748
64.984993 104.95333 -3.6603334
65.123245 104.88 -3.6443751
65.272499 104.78451 -3.6311665
64.630127 105.146 -3.5904999
64.832565 105.04288 -3.6203749
64.157555 105.42822 -3.6446669
64.359749 105.3095 -3.6356666
63.691833 105.7055 -3.6397502
63.895832 105.57983 -3.635
64.005997 105.51716 -3.6344998
63.19175 105.99625 -3.6194999
63.3899 105.88159 -3.6283002
63.557499 105.78 -3.582
63.0755 106.06438 -3.6023748
70.953003 101.444 -3.2590001
69.258003 102.494 -3.46
68.375496 102.96433 -3.3568332
67.928253 103.18649 -3.3392498
68.101372 103.11395 -3.3736873
68.266754 103.02875 -3.3865001
67.697998 103.354 -3.3169999
67.817001 103.297 -3.389375
66.224747 104.178 -3.4152501
66.098282 104.30157 -3.3662853
65.391663 104.71533 -3.3685834
65.537994 104.62975 -3.3830419
64.992249 104.96425 -3.37925
65.149216 104.87664 -3.3838573
65.276001 104.78934 -3.3576667
64.604599 105.1838 -3.3767998
64.825127 105.05112 -3.3768749
64.154877 105.44388 -3.3734999
64.3937 105.30354 -3.3835998
63.692299 105.71529 -3.3917
63.87331 105.60651 -3.3591247
64.013672 105.529 -3.3606665
63.369354 105.89954 -3.3718092
63.583752 105.77938 -3.3396249
63.099834 106.05884 -3.3455
62.651669 106.45567 -3.339
62.450249 106.70237 -3.385375
62.6026 106.6026 -3.3541999
62.304802 106.80601 -3.3650002
71.098495 101.4255 -3.1925001
70.522003 101.726 -3.0380001
70.1035 101.9645 -3.0735002
70.374001 101.825 -3.0603333
70.000999 102.045 -3.046
68.380753 102.97113 -3.1201251
67.926826 103.19666 -3.132333
68.130783 103.11743 -3.1152859
68.26667 103.02866 -3.1483335
67.708603 103.3542 -3.1221001
67.834244 103.2805 -3.0775001
66.227997 104.18334 -3.1356666
66.329666 104.13733 -3.1344998
66.099564 104.30576 -3.1431875
65.395752 104.721 -3.0853748
65.532005 104.64034 -3.0836668
64.996666 104.97134 -3.1429999
65.13475 104.89724 -3.132875
65.279755 104.79425 -3.1212502
64.598755 105.18964 -3.1149998
64.841309 105.056 -3.1083124
64.175217 105.43286 -3.1112857
64.410904 105.29414 -3.1192
63.695831 105.69883 -3.0655
63.878601 105.60289 -3.1066
64.016495 105.534 -3.145
63.343437 105.91949 -3.1442499
63.589832 105.77334 -3.1004999
63.099873 106.0585 -3.1183748
62.399498 106.445 -3.0644999
62.604248 106.4145 -3.1222501
61.954002 106.713 -3.072
62.111 106.6315 -3.0955
62.414204 106.6748 -3.1749001
62.583668 106.61566 -3.1899998
61.467999 106.995 -3.0899999
61.599499 106.9155 -3.0960002
61.886669 106.91067 -3.095
62.1357 106.9196 -3.1561
62.324997 106.79501 -3.1403334
71.094505 101.3675 -2.7889998
71.257004 101.264 -2.7780001
70.420998 101.741 -2.786
70.650444 101.62922 -2.7982223
70.161903 101.9285 -2.862
70.376602 101.828 -2.9259999
70.545998 101.759 -2.9549999
69.643997 102.20599 -2.7969999
69.864502 102.1048 -2.8065
69.202667 102.46301 -2.8156669
69.369598 102.37939 -2.8236001
69.527 102.272 -2.813
69.039749 102.58975 -2.8744998
68.395996 102.96 -2.8395
67.953506 103.185 -2.8829999
68.126373 103.11337 -2.9208751
68.31913 103.02676 -2.8755
67.842255 103.252 -2.90325
66.233002 104.19 -2.9630001
65.947754 104.389 -2.8777499
66.095589 104.298 -2.9019167
65.39933 104.69976 -2.8565834
65.515999 104.668 -2.7739999
64.939827 104.96549 -2.8627501
65.128746 104.85317 -2.9117501
65.262001 104.76649 -2.8840001
64.614586 105.19625 -2.8461668
64.802399 105.06001 -2.8634
64.165001 105.45071 -2.8867857
64.410255 105.31126 -2.8555832
63.669666 105.71017 -2.8671668
63.890781 105.63293 -2.8580716
64.021332 105.54034 -2.8443334
63.189003 105.9895 -2.9524999
63.351917 105.9097 -2.8988335
63.559998 105.782 -2.8924999
63.106701 106.06289 -2.8688998
71.341499 101.237 -2.5510001
70.914001 101.463 -2.70225
71.108368 101.38275 -2.6312499
71.2575 101.26475 -2.58425
70.622772 101.63944 -2.6258333
70.809753 101.572 -2.6347499
70.208992 101.94233 -2.7110002
70.329338 101.86066 -2.6916666
69.704659 102.21467 -2.6213334
69.855751 102.138 -2.6018333
70.053337 102.05189 -2.6281111
69.21167 102.47533 -2.6733334
69.401291 102.373 -2.6082141
69.590332 102.28617 -2.6359999
68.916794 102.66701 -2.6144001
69.074005 102.57201 -2.6413
69.288002 102.538 -2.5090001
68.384499 102.976 -2.6234999
68.27533 103.04067 -2.6316667
65.968002 104.41866 -2.6416667
66.088287 104.33043 -2.6574285
65.442245 104.7115 -2.5885
65.517502 104.67025 -2.6224999
64.942337 104.98325 -2.6018333
65.110001 104.91917 -2.6315835
65.300095 104.8011 -2.6417999
64.62075 105.20676 -2.6498334
64.80072 105.06428 -2.590889
64.178497 105.46075 -2.5887499
64.348946 105.35931 -2.611125
63.681396 105.7137 -2.6003001
63.897167 105.6253 -2.6100416
64.06588 105.52637 -2.6117499
63.356777 105.93944 -2.6426666
63.534542 105.82975 -2.6177502
63.131218 106.06866 -2.6541109
71.337997 101.231 -2.4200001
71.065002 101.4435 -2.3889999
71.262672 101.271 -2.3476665
69.727837 102.2255 -2.3601665
69.859497 102.14301 -2.4138334
69.368225 102.39767 -2.3745556
69.5924 102.3046 -2.3877001
68.916008 102.70533 -2.4283333
69.042496 102.63049 -2.444
69.272003 102.515 -2.3369999
68.358505 103.03184 -2.3889999
65.963501 104.41134 -2.3675001
66.074997 104.34187 -2.4189999
65.445 104.71433 -2.3510001
65.520668 104.67533 -2.3426666
64.929993 104.9915 -2.3892498
65.11924 104.91195 -2.3577142
65.334892 104.78233 -2.4045556
64.651009 105.19 -2.4073889
64.855003 105.02533 -2.3333333
64.182671 105.46667 -2.3523333
64.361305 105.36011 -2.3700497
64.557495 105.256 -2.2969999
63.681499 105.72867 -2.3503332
63.901669 105.63259 -2.3406665
64.070999 105.53449 -2.3752501
63.368126 105.93687 -2.3786874
63.530502 105.83662 -2.3684998
63.134415 106.07324 -2.403167
71.347 101.244 -2.2490001
71.266998 101.276 -2.1300001
68.953003 102.496 -2.1389999
69.378777 102.41256 -2.1306665
69.599663 102.32534 -2.1203334
69.813004 102.372 -2.191
68.907669 102.63767 -2.0913334
69.266998 102.507 -2.1619999
66.734497 103.9715 -2.1209998
66.922668 103.9035 -2.0658333
67.107201 103.80591 -2.0869999
66.3955 104.17775 -2.1122501
66.637001 104.06234 -2.0600002
66.842003 104.017 -2.003
65.973 104.426 -2.1229999
66.128998 104.37875 -2.12375
66.378494 104.29175 -2.01525
65.415169 104.72233 -2.1016667
65.518501 104.67 -2.1265001
64.988495 104.957 -2.0650001
65.120239 104.89504 -2.0938668
65.309593 104.8008 -2.1696
64.688919 105.17725 -2.1484168
64.864403 105.0282 -2.1440001
64.198502 105.43833 -2.085
64.371712 105.35635 -2.1441429
64.559998 105.25951 -2.1255
63.682503 105.73038 -2.1140001
63.904461 105.62933 -2.1182919
64.070839 105.53367 -2.1601667
63.194 105.998 -2.0469999
63.349361 105.92333 -2.1063335
63.567333 105.79333 -2.1613333
63.110645 106.07021 -2.1502857
70.927505 101.481 -1.8380001
71.103539 101.40446 -1.8923334
70.822998 101.55534 -1.8635
69.242004 102.46899 -1.88275
69.396004 102.38617 -1.8853334
69.097855 102.56165 -1.8939286
66.660004 103.97099 -1.9095
66.884003 103.845 -1.92425
67.114998 103.801 -1.961
66.201004 104.224 -1.8985
66.402 104.12534 -1.9163333
66.570335 104.12034 -1.966
66.766998 104.062 -1.987
65.397499 104.72075 -1.93275
65.529663 104.634 -1.9626667
64.9505 104.98 -1.9645
65.133667 104.87299 -1.9393333
65.274002 104.785 -1.979
64.590996 105.18475 -1.983
64.796005 105.063 -1.984
64.092003 105.482 -1.99
64.384003 105.307 -1.9860001
63.864502 105.6165 -1.9925001
64.014999 105.53 -1.9809999
63.187 105.984 -1.96
63.336666 105.90366 -1.954
63.560001 105.781 -1.989
63.071499 106.055 -1.9665
