# .PCD v0.7 - Point Cloud Data file format
VERSION 0.7
FIELDS x y z
SIZE 4 4 4
TYPE F F F
COUNT 1 1 1
WIDTH 307
HEIGHT 1
VIEWPOINT -18.2321 96.2205 -1.35163 -0.354149 -0.00701479 0.0211809 0.934923
POINTS 307
DATA ascii
-12.919666 -58.320335 0.74766672
-12.783666 -58.124332 0.69633335
-12.698 -58.008999 0.67799997
-12.652 -57.934376 0.71000004
-13.4048 -59.067604 0.8955
-13.611167 -58.870918 0.86050004
-13.344404 -58.892666 0.86426198
-13.035 -58.544998 0.86799997
-13.0135 -58.446747 0.79299998
-12.900937 -58.355942 0.89931256
-12.782042 -58.159248 0.83920836
-12.661389 -58.051113 0.92827779
-12.591262 -57.896503 0.86509526
-13.356 -59.028999 1.242
-13.2105 -59.051003 1.184
-13.660445 -58.815334 1.0929999
-13.406334 -58.92775 1.1314167
-13.105083 -58.814999 1.1903332
-13.0345 -58.641502 1.1654999
-12.940167 -58.598759 1.1359047
-12.819598 -58.398304 1.1393001
-12.720668 -58.296997 1.1353334
-12.7895 -58.218498 1.2495
-12.627687 -58.118 1.1485626
-12.488 -58.007999 1.151
-12.532666 -57.953003 1.1166667
-13.397639 -59.078671 1.3575001
-13.294499 -58.947834 1.3905001
-13.2061 -58.815601 1.3706999
-13.073056 -58.625248 1.3623056
-12.920084 -58.402836 1.3625001
-12.770292 -58.182961 1.4032917
-12.680779 -58.050888 1.3783334
-12.570643 -57.891716 1.3489287
-13.361 -59.057629 1.5784333
-13.283563 -58.896313 1.6790626
-13.152917 -58.887665 1.6090001
-13.09737 -58.669296 1.6357408
-12.932084 -58.590752 1.61875
-12.885318 -58.369225 1.6271819
-12.745501 -58.316498 1.6205001
-12.752874 -58.154499 1.71225
-12.651999 -58.137112 1.5769999
-12.579583 -57.900558 1.6070555
-13.405556 -59.048054 1.8562222
-13.30035 -58.910961 1.9058501
-13.2195 -58.794998 1.8940001
-13.100688 -58.630047 1.8963333
-12.965333 -58.362667 1.8996667
-12.850132 -58.18594 1.8628722
-12.716 -58.09 1.904
-12.589407 -57.882359 1.8651459
-13.3463 -59.0355 2.1205001
-13.302126 -58.908501 2.095
-13.149785 -58.832935 2.0875001
-13.086 -58.607044 2.151
-12.958667 -58.596165 2.0533333
-13.015667 -58.4575 2.2041667
-12.865604 -58.352978 2.1012707
-12.736 -58.275002 2.036
-12.767416 -58.118835 2.1935
-12.671861 -58.085339 2.0997224
-12.5675 -57.869133 2.1424668
-12.441333 -57.862667 2.0406671
-12.5155 -57.7495 2.247
-13.44825 -59.057831 2.4045835
-13.3068 -58.906345 2.3632286
-13.208889 -58.815445 2.3671668
-13.126023 -58.646549 2.3928094
-12.985 -58.519001 2.4649999
-13.0165 -58.462749 2.38275
-12.882993 -58.343979 2.3887727
-12.765833 -58.112999 2.3911667
-12.6693 -58.069103 2.4061999
-12.585475 -57.888283 2.3744049
-12.46 -57.880001 2.4719999
-12.407437 -57.64325 2.3790002
-13.447001 -59.051003 2.6476667
-13.322361 -58.903393 2.6410418
-13.154 -58.894669 2.5256667
-13.098742 -58.63739 2.6118333
-12.932501 -58.574501 2.5165
-13.01925 -58.47625 2.6135001
-12.849751 -58.350376 2.5444999
-12.839324 -58.148579 2.6665277
-12.687124 -58.101875 2.5526249
-12.598163 -57.883137 2.6257372
-12.444 -57.807999 2.5109999
-12.511999 -57.735001 2.6589999
-12.421333 -57.601696 2.6516111
-12.137875 -57.616375 2.5278749
-12.300301 -57.453003 2.6264668
-12.043249 -57.193123 2.6529999
-11.963867 -57.09502 2.6297166
-13.409 -59.028999 2.86675
-13.306888 -58.855774 2.8482039
-13.1535 -58.83754 2.9698751
-13.143375 -58.658184 2.8461666
-12.976 -58.579498 2.9520001
-13.01425 -58.45425 2.822
-12.9023 -58.382 2.9108
-12.82589 -58.17078 2.857111
-12.660875 -58.128998 2.9447503
-12.593334 -57.878841 2.8962271
-12.4555 -57.810749 2.9545002
-12.502 -57.691002 2.842
-11.872625 -56.897499 2.7992501
-13.44175 -59.032001 3.1015
-13.318695 -58.865032 3.1013334
-13.117084 -58.583591 3.1166191
-13.021054 -58.435108 3.1457777
-12.927867 -58.316406 3.1252666
-12.783751 -58.096584 3.1474586
-12.749 -58.040337 3.053
-12.629645 -57.87215 3.1377292
-12.521334 -57.714668 3.1443334
-12.432305 -57.584675 3.1387637
-13.43675 -59.01025 3.3125
-13.33674 -58.895874 3.3828518
-13.184792 -58.811874 3.4145834
-13.1474 -58.653999 3.35745
-12.9985 -58.582001 3.4124999
-13.046 -58.464748 3.3952498
-12.916384 -58.35918 3.3609002
-12.819778 -58.164577 3.4218521
-12.6883 -58.099499 3.3813
-12.608048 -57.864143 3.3915238
-12.44925 -57.785 3.3982501
-12.415062 -57.650871 3.3764377
-13.436 -59.007 3.6619999
-13.340904 -58.883759 3.6364286
-13.1855 -58.65493 3.6201432
-13.046666 -58.437748 3.6190834
-12.97025 -58.30875 3.6317501
-12.848125 -58.09906 3.6315033
-12.646286 -57.860859 3.6407144
-12.552501 -57.730999 3.6437223
-12.455974 -57.593719 3.6439724
-13.331861 -58.883057 3.8869171
-13.188666 -58.831333 3.8583333
-13.130751 -58.597111 3.8680713
-12.990499 -58.550499 3.8724999
-13.03775 -58.430626 3.8543749
-12.900223 -58.350693 3.8586667
-12.830287 -58.164215 3.9048097
-12.682001 -58.081001 3.8440003
-12.593901 -57.902599 3.8873
-12.46725 -57.769753 3.8204999
-12.552 -57.731499 3.92275
-12.44225 -57.611626 3.9001253
-13.357446 -58.858128 4.1442966
-13.17621 -58.608948 4.1431332
-13.038223 -58.419388 4.1518888
-12.979667 -58.33783 4.1465001
-12.857204 -58.176167 4.1386666
-12.661595 -57.885174 4.1427259
-12.550001 -57.723335 4.0570002
-12.443125 -57.565998 4.1306248
-13.348119 -58.866356 4.3979998
-13.204 -58.835251 4.3134999
-13.144314 -58.635201 4.3757224
-12.993 -58.563 4.3150001
-13.071542 -58.456669 4.4100838
-12.916 -58.352303 4.3311
-12.874833 -58.095192 4.4345121
-12.642 -58.049 4.2919998
-12.644729 -57.879272 4.363625
-12.491 -57.832001 4.2909999
-12.555333 -57.683502 4.4223332
-12.424868 -57.605999 4.3247666
-13.371333 -58.861118 4.6242623
-13.2875 -58.737999 4.6809998
-13.185751 -58.615997 4.6348748
-13.074 -58.4338 4.5995998
-12.905499 -58.330669 4.7143331
-12.858229 -58.095459 4.6035833
-12.707 -58.061001 4.711
-12.643062 -57.873936 4.6335001
-12.475 -57.761002 4.7420001
-12.562041 -57.681957 4.5854583
-13.368501 -58.862068 4.8836432
-13.205 -58.843498 4.7694998
-13.269251 -58.719337 4.8914165
-13.147573 -58.604282 4.8410001
-13.059875 -58.393044 4.9087086
-12.96289 -58.365112 4.8290558
-12.89536 -58.160473 4.8740835
-12.659 -58.029999 4.7529998
-12.769625 -57.965874 4.8673749
-12.665668 -57.836357 4.8652501
-12.55115 -57.647816 4.8735499
-13.344352 -58.838108 5.1307034
-13.279 -58.703999 5.0900002
-13.14825 -58.644287 5.1688166
-13.052251 -58.406097 5.1258502
-12.922215 -58.312252 5.1734285
-12.837583 -58.128254 5.132
-12.701 -58.038002 5.1900001
-12.7745 -57.965248 5.0844998
-12.631888 -57.856644 5.1376386
-13.507 -58.932999 5.4770002
-13.347749 -58.847492 5.4098339
-13.25 -58.769997 5.3730001
-13.298 -58.692001 5.4635
-13.150797 -58.591316 5.3602962
-13.078357 -58.395863 5.4326429
-12.958 -58.320995 5.3516665
-12.845625 -58.116211 5.3641462
-12.781334 -57.939777 5.4308891
-12.656858 -57.849476 5.3615718
-13.5055 -58.9245 5.625
-13.3865 -58.868092 5.6295953
-13.236334 -58.771332 5.6493335
-13.315625 -58.676502 5.6343746
-13.1614 -58.617901 5.6251998
-13.077021 -58.393585 5.6503539
-12.9167 -58.327003 5.6473999
-13.047 -58.240002 5.52
-12.851926 -58.125881 5.6439075
-12.705 -58.061001 5.6300001
-12.7815 -57.908001 5.6286669
-12.652427 -57.88147 5.6327591
-13.432445 -58.873585 5.8791671
-13.293458 -58.675545 5.8961668
-13.196334 -58.536057 5.8519444
-13.071445 -58.354782 5.9012222
-12.900056 -58.135223 5.8881111
-12.782056 -57.944386 5.9183335
-12.697166 -57.823833 5.8986669
-13.423416 -58.874729 6.130528
-13.249 -58.771999 6.073
-13.301584 -58.675354 6.1681504
-13.166521 -58.583237 6.0996037
-13.054501 -58.347031 6.1769719
-12.953501 -58.341698 6.1031008
-13.002 -58.243 6.0149999
-12.863716 -58.120922 6.1259503
-12.699 -58.035 6.0890002
-12.8125 -57.962502 6.1729999
-12.634945 -57.860836 6.1074166
-13.513 -58.9655 6.4070001
-13.398466 -58.837933 6.3846998
-13.291716 -58.672642 6.3649993
-13.2015 -58.584499 6.4302502
-13.088306 -58.35989 6.3608327
-13.003 -58.25 6.4575
-12.926499 -58.150417 6.3720832
-12.796999 -57.939751 6.3190002
-12.701777 -57.815582 6.3859162
-13.555 -59.049202 6.6539993
-13.511001 -58.957001 6.5453334
-13.428612 -58.862194 6.6302223
-13.314334 -58.676392 6.6433887
-13.221034 -58.555897 6.6346002
-13.108 -58.401348 6.6285367
-12.981251 -58.37925 6.53825
-13.755 -59.278 6.954
-13.6265 -59.118565 6.8684378
-13.512501 -58.947834 6.8513336
-13.40875 -58.822601 6.8420501
-13.326556 -58.672443 6.9346118
-13.244 -58.564999 6.8130002
-13.184 -58.492001 6.7639999
-13.964 -59.615002 7.2150002
-13.799833 -59.341381 7.1260834
-13.631723 -59.108276 7.1193333
-13.507334 -58.946915 7.0888338
-13.44775 -58.834747 7.1135001
-13.329918 -58.660358 7.1036396
-13.23175 -58.513252 7.07125
-14.375387 -59.847492 7.3552146
-14.223 -59.834167 7.3671665
-14.095331 -59.650475 7.3551764
-13.952889 -59.549561 7.362
-13.81975 -59.370438 7.3518329
-13.734 -59.250668 7.4299998
-13.655917 -59.126541 7.3329167
-13.55275 -58.978996 7.3045001
-13.431167 -58.815163 7.3131666
-13.311833 -58.612835 7.2818336
-14.661251 -60.029999 7.6025
-14.613438 -59.88327 7.6545
-14.41375 -59.787746 7.5482502
-14.234667 -59.761002 7.5470004
-14.509 -59.687 7.6799998
-14.375331 -59.707275 7.6515093
-14.148836 -59.6231 7.6278625
-13.978 -59.5415 7.5716248
-14.0527 -59.484901 7.6879001
-13.881 -59.439999 7.5409999
-14.6445 -59.776501 7.7550001
-14.261999 -59.754501 7.7554998
-14.626374 -59.61105 7.873035
-14.369102 -59.663097 7.8744016
-14.152958 -59.57629 7.8521671
-14.5975 -59.497498 7.9375
-14.111 -59.491001 7.9584999
-14.923333 -59.85358 8.1185827
-14.812695 -59.698498 8.1412497
-14.598201 -59.527802 8.1263008
-14.357107 -59.616955 8.119113
-14.163834 -59.535 8.0976667
-15.065001 -59.82925 8.4177494
-14.892147 -59.862591 8.330574
-14.7215 -59.802502 8.368
-14.609024 -59.618755 8.3472385
-14.4092 -59.539001 8.3382587
