# .PCD v0.7 - Point Cloud Data file format
VERSION 0.7
FIELDS x y z
SIZE 4 4 4
TYPE F F F
COUNT 1 1 1
WIDTH 114
HEIGHT 1
VIEWPOINT -18.2321 96.2205 -1.35163 -0.354149 -0.00701479 0.0211809 0.934923
POINTS 114
DATA ascii
19.889025 -23.349094 9.2253933
20.085876 -23.374218 9.2273178
20.35479 -23.351616 9.2263851
20.656584 -23.414597 9.1814709
19.653744 -23.121662 9.2121677
19.852892 -23.114471 9.213912
20.131538 -23.134153 9.2155781
20.36648 -23.093044 9.2148142
20.635672 -23.121126 9.2175274
20.913166 -23.171848 9.1727638
19.424021 -22.855621 9.1975203
19.632595 -22.859482 9.199358
19.879013 -22.86108 9.2015314
20.123026 -22.856302 9.2035055
20.358435 -22.855553 9.2047386
20.616426 -22.86422 9.2062197
20.863737 -22.889679 9.2080641
19.193222 -22.563751 9.1843882
19.369797 -22.646801 9.1885042
19.622839 -22.612545 9.1878767
19.86286 -22.637743 9.190712
20.131834 -22.652786 9.1943798
20.381367 -22.629259 9.1942987
20.620602 -22.636871 9.1969528
20.867294 -22.649553 9.1982813
19.138651 -22.378279 9.1742344
19.394913 -22.374393 9.1755123
19.629423 -22.374313 9.1765347
19.870749 -22.38463 9.1794157
20.146461 -22.383177 9.1811552
20.368151 -22.389118 9.1827831
20.633699 -22.363268 9.184062
20.875034 -22.389246 9.186861
18.881029 -22.139317 9.1632938
19.145519 -22.147657 9.1641035
19.381376 -22.117485 9.1628752
19.614574 -22.136049 9.1651173
19.868946 -22.134623 9.1681452
20.117107 -22.150105 9.1690903
20.379732 -22.135433 9.1702404
20.610472 -22.124996 9.1718502
18.865639 -21.881683 9.1531239
19.122019 -21.868235 9.1523438
19.35257 -21.865387 9.1524019
19.643799 -21.883442 9.1543875
19.901173 -21.890965 9.1557856
20.127581 -21.909922 9.1573181
20.36343 -21.850142 9.156538
18.64366 -21.631828 9.1418896
18.88736 -21.612831 9.142066
19.135057 -21.5944 9.1423836
19.374866 -21.646524 9.1445951
19.613108 -21.633926 9.1442184
19.863014 -21.647169 9.144825
20.135553 -21.637329 9.1453829
18.375784 -21.365295 9.1283264
18.593025 -21.368593 9.1302118
18.857244 -21.379686 9.1322575
19.130005 -21.336561 9.1312742
19.365759 -21.38508 9.1346951
19.647779 -21.367706 9.1345072
19.884281 -21.361902 9.133831
18.137106 -21.148924 9.1162491
18.373623 -21.114689 9.1174479
18.638624 -21.116674 9.1190605
18.870733 -21.147425 9.1219664
19.132395 -21.114874 9.1222782
19.366014 -21.112396 9.1230078
19.634047 -21.124832 9.123765
19.871286 -21.153681 9.1255312
17.721777 -20.817612 9.0977774
17.853014 -20.871534 9.1013632
18.088968 -20.849112 9.1026764
18.357693 -20.865463 9.1058893
18.62405 -20.841642 9.1070423
18.85408 -20.895212 9.110589
19.115709 -20.886995 9.1117849
19.381861 -20.854645 9.1112385
19.628361 -20.87159 9.1119165
17.609737 -20.645182 9.088872
17.864628 -20.624584 9.0903692
18.131075 -20.629288 9.0926809
18.369177 -20.649595 9.0954161
18.617594 -20.633661 9.0967913
18.876392 -20.646099 9.0990496
19.139204 -20.634094 9.0996437
19.368303 -20.616421 9.0997448
17.632193 -20.362923 9.0781021
17.908947 -20.367777 9.0801983
18.116823 -20.356911 9.0808077
18.353506 -20.383747 9.0829172
18.635899 -20.349745 9.0836735
18.879202 -20.368788 9.0864525
19.133066 -20.365467 9.0875969
17.363567 -20.150492 9.0663795
17.663954 -20.119913 9.0676355
17.886127 -20.130909 9.0697575
18.127556 -20.118349 9.0709696
18.386003 -20.134787 9.0728273
18.60767 -20.12998 9.0739193
18.854 -20.106678 9.0745859
17.395798 -19.948303 9.0583038
17.626444 -19.849531 9.056181
17.862343 -19.852962 9.057641
18.1483 -19.896559 9.061368
18.369568 -19.87006 9.0617466
18.654097 -19.869698 9.0635166
17.677999 -19.671749 9.0502501
17.856375 -19.608763 9.0476427
18.122282 -19.643461 9.050683
18.380095 -19.629595 9.0513887
18.53689 -19.66239 9.0523891
17.944944 -19.435722 9.0413895
18.157362 -19.365761 9.0375423
