# .PCD v0.7 - Point Cloud Data file format
VERSION 0.7
FIELDS x y z
SIZE 4 4 4
TYPE F F F
COUNT 1 1 1
WIDTH 61
HEIGHT 1
VIEWPOINT -18.2321 96.2205 -1.35163 -0.354149 -0.00701479 0.0211809 0.934923
POINTS 61
DATA ascii
-48.240837 13.231167 20.451668
-48.290615 13.380183 20.439083
-48.242088 13.230207 20.605042
-48.361038 13.384072 20.586456
-48.340961 13.605333 20.594501
-48.242443 13.227971 20.846972
-48.397934 13.383816 20.854233
-48.247334 13.227291 21.098377
-48.382561 13.388371 21.123281
-48.291767 13.102007 21.329056
-48.245682 13.242437 21.400234
-48.385429 13.387428 21.384596
-48.364212 12.946727 21.64921
-48.28838 13.125866 21.631315
-48.248165 13.241833 21.542501
-48.505001 13.498 21.552
-48.404648 13.420092 21.617556
-48.367027 12.945168 21.905167
-48.291767 13.1368 21.873224
-48.389729 13.394284 21.855795
-48.367741 12.943098 22.099838
-48.29739 13.140786 22.114693
-48.365086 13.386091 22.125807
-48.2435 13.31 22.237499
-48.441002 13.618 22.236
-48.375336 12.961083 22.349945
-48.30254 13.136618 22.358961
-48.24575 13.309334 22.3955
-48.375572 12.956901 22.601051
-48.307491 13.123674 22.617271
-48.216518 13.393495 22.635782
-48.173668 13.513667 22.679668
-48.39465 12.963652 22.862368
-48.3004 13.14838 22.859362
-48.210815 13.413326 22.864988
-48.139664 13.62736 22.859604
-48.292194 13.139397 23.088453
-48.220383 13.382066 23.135424
-48.13839 13.619581 23.128895
-48.053501 13.841948 23.122036
-47.996582 13.991833 23.098251
-47.937218 14.147558 23.119324
-47.850655 14.372579 23.122868
-47.788013 14.543353 23.139435
-47.732903 14.679492 23.126236
-47.644638 14.882457 23.131268
-48.193707 13.423685 23.323755
-48.139587 13.620907 23.389158
-48.045532 13.869374 23.362816
-47.999001 13.991 23.290001
-47.942131 14.147799 23.362839
-47.866425 14.349083 23.364704
-47.782715 14.574329 23.398439
-47.718777 14.729355 23.351196
-47.669521 14.800894 23.340073
-48.043987 13.855412 23.540489
-47.989334 13.912167 23.571835
-47.923882 14.152215 23.544548
-47.834518 14.372938 23.540625
-47.790298 14.5326 23.511299
-47.719627 14.665751 23.526625
