# .PCD v0.7 - Point Cloud Data file format
VERSION 0.7
FIELDS x y z
SIZE 4 4 4
TYPE F F F
COUNT 1 1 1
WIDTH 176
HEIGHT 1
VIEWPOINT -18.2321 96.2205 -1.35163 -0.354149 -0.00701479 0.0211809 0.934923
POINTS 176
DATA ascii
-50.817001 1.727 -1.325
-50.652752 1.668 -1.3110001
-50.360001 1.56225 -1.3064582
-50.939167 1.778 -1.3195
-50.800526 1.7291945 -1.1385555
-50.631474 1.6677777 -1.1454723
-50.398144 1.5822858 -1.1494523
-50.246338 1.533 -1.0396667
-51.140778 1.8561668 -1.1015
-50.912838 1.77425 -1.0786113
-50.124115 1.4951111 -0.85255557
-50.762001 1.7250001 -0.90708339
-50.618908 1.6748571 -0.85195225
-50.382999 1.5895556 -0.86194444
-50.224442 1.5321666 -0.86388892
-51.129284 1.8617221 -0.86111116
-50.912167 1.783 -0.86691666
-50.616474 1.6852499 -0.59755558
-50.371861 1.597 -0.59857136
-50.192585 1.531 -0.59183335
-51.332165 1.9472668 -0.6206333
-51.095505 1.8606666 -0.59925002
-50.880669 1.7821667 -0.59391665
-50.651001 1.706762 -0.39390475
-50.387253 1.6119168 -0.3704167
-50.195446 1.5430001 -0.34333333
-51.346615 1.9635557 -0.3475
-51.134399 1.8848958 -0.36002082
-50.867294 1.7877592 -0.33992592
-51.619499 2.0898752 -0.30425
-53.315498 2.7118335 -0.29766667
-50.603065 1.6992668 -0.13633335
-50.397499 1.6255001 -0.10679167
-50.179733 1.5449002 -0.13803333
-51.318169 1.9621668 -0.12616667
-51.152199 1.9027001 -0.1196
-50.874557 1.799889 -0.11572223
-51.602634 2.0914333 -0.15522778
-51.435894 2.0068889 -0.14811112
-53.273338 2.7096667 -0.14866666
-53.095337 2.6411667 -0.14400001
-53.555603 2.9727333 -0.13946667
-53.603382 3.123491 -0.11241633
-53.700085 3.3352499 -0.1030625
-50.563667 1.6982 0.13556667
-50.376114 1.63 0.14855556
-50.165005 1.5505834 0.12799999
-51.304794 1.97075 0.16683334
-51.109005 1.8976113 0.15130556
-50.894444 1.8183889 0.14602779
-50.729004 1.7592224 0.15449999
-51.762001 2.1588333 0.15100001
-51.595573 2.1111429 0.14014286
-51.441414 2.0190001 0.10220833
-53.256664 2.7086666 0.037333336
-53.106781 2.6563332 0.12929167
-53.518612 2.9831667 0.15627778
-53.494999 2.9820001 0.018999999
-53.542786 3.1543119 0.11503332
-53.485867 3.0333614 0.15116666
-53.717285 3.3532779 0.096305557
-50.608208 1.7233334 0.35458335
-50.368141 1.6374522 0.37990475
-51.330292 1.9886668 0.34554166
-51.111065 1.9091336 0.41006666
-50.858418 1.8175 0.41799998
-50.700668 1.7580001 0.38741669
-51.838943 2.1970556 0.34494445
-51.602871 2.1168334 0.37614581
-51.464447 2.0368888 0.34961113
-53.269753 2.7349999 0.44
-53.147053 2.6828053 0.3591111
-52.925167 2.5968335 0.375
-53.525749 2.9835 0.38349998
-53.555744 3.1555066 0.35651854
-53.484497 3.0387499 0.35925001
-53.711338 3.3512962 0.34846082
-50.569336 1.7190001 0.6056667
-50.391724 1.6548887 0.62172228
-50.162796 1.573875 0.65541667
-51.320503 1.9970001 0.59916669
-51.124115 1.9234444 0.61841667
-50.881351 1.8356853 0.65279633
-50.66745 1.7574444 0.6556111
-51.825169 2.197 0.59866667
-51.595459 2.1164794 0.6192084
-51.428501 2.0358334 0.6008333
-53.278999 2.744 0.52499998
-53.125999 2.6819999 0.52249998
-52.931999 2.615 0.52100003
-53.546001 2.984 0.50599998
-53.601337 3.1003332 0.51600003
-53.706165 3.3399446 0.51705557
-50.525558 1.7177778 0.8518889
-50.362518 1.6576834 0.86458331
-50.174717 1.5896111 0.88124996
-51.27689 1.9924999 0.84686112
-51.136204 1.9401333 0.87060004
-50.89592 1.8536668 0.8959167
-50.682915 1.77575 0.89491665
-51.848431 2.2130713 0.90297616
-51.608974 2.1270714 0.84945238
-51.432167 2.0509999 0.87406671
-53.114868 2.6770332 0.87980002
-52.904335 2.5958333 0.90162504
-52.717499 2.5304999 0.95050001
-50.569 1.7423334 1.0480001
-50.382854 1.6780478 1.1259525
-51.256004 1.9950001 1.046
-51.106907 1.9429287 1.1516191
-50.852142 1.8497143 1.1565238
-50.660297 1.7784666 1.1144667
-51.587971 2.1361337 1.1272666
-51.419472 2.0583999 1.1321334
-52.579338 2.4863334 1.1436666
-53.084602 2.6756001 1.1390998
-52.860668 2.5937779 1.1438612
-52.693249 2.529 1.1157501
-53.526001 2.9654999 1.1665
-53.359001 2.7839999 1.199
-53.596706 3.1188335 1.1607084
-53.680199 3.3018 1.14555
-50.388275 1.6897224 1.3566389
-50.183533 1.6156334 1.3788002
-51.143139 1.9664999 1.3683056
-50.879025 1.8710953 1.3940001
-50.612808 1.7730833 1.3590555
-51.802002 2.2135 1.3568335
-51.529915 2.1224999 1.42075
-51.362133 2.0484333 1.3823335
-52.542999 2.484 1.29
-52.4025 2.4328334 1.3655
-53.192001 2.7225001 1.3410001
-52.797001 2.5734999 1.2985001
-52.667 2.527 1.336
-53.534302 2.9706001 1.2921001
-53.336502 2.7825 1.2555001
-53.609264 3.154017 1.2838833
-53.759003 3.4689999 1.267
-53.737999 3.4489999 1.339
-50.348137 1.6884 1.6236
-50.152805 1.6149167 1.6202221
-51.128254 1.9725 1.6014167
-50.884666 1.8854001 1.6366667
-50.613857 1.785524 1.6198809
-51.829891 2.2365558 1.6383333
-51.65353 2.1744721 1.6256946
-51.392624 2.0717084 1.6409167
-52.518002 2.4833333 1.5466669
-52.382141 2.4377143 1.636857
-53.169334 2.7290418 1.6177084
-52.933876 2.6426251 1.6333749
-52.622334 2.5253332 1.6293334
-53.514 2.9645 1.727
-53.497498 2.9449999 1.6389999
-53.600666 3.1443853 1.6275351
-53.729504 3.4289999 1.6066667
-50.352833 1.6990715 1.8415
-51.09428 1.9710556 1.8502778
-50.865803 1.8882779 1.8741666
-50.645363 1.8068095 1.8498811
-50.482586 1.7503333 1.90275
-51.785221 2.2304444 1.8683888
-51.596313 2.1695168 1.8354499
-51.3605 2.0701389 1.8674167
-51.237331 2.0276668 1.9416668
-51.903336 2.2744999 1.8690001
-50.311249 1.6930001 2.0230002
-51.070999 1.97 2.0105
-50.873333 1.9253334 2.0259998
-50.641499 1.8428334 2.0342224
-50.467003 1.75 2.017
-51.764 2.2290001 2.006
-51.557503 2.1669998 2.003
-51.3255 2.0869999 2.0190001
-51.226002 2.027 2.013
