# .PCD v0.7 - Point Cloud Data file format
VERSION 0.7
FIELDS x y z
SIZE 4 4 4
TYPE F F F
COUNT 1 1 1
WIDTH 195
HEIGHT 1
VIEWPOINT -18.2321 96.2205 -1.35163 -0.354149 -0.00701479 0.0211809 0.934923
POINTS 195
DATA ascii
-5.6599998 67.576752 -1.7622499
-4.9171 67.083481 -1.63442
-5.5773335 67.467003 -1.6421666
-5.6947141 67.621742 -1.6174762
-5.7981663 67.77533 -1.6461667
-5.5022497 67.123749 -1.4125
-4.9196005 67.09642 -1.3521668
-5.5780001 67.475998 -1.4535
-5.6698332 67.621223 -1.3621112
-5.8050003 67.863495 -1.4225001
-4.9170184 67.163391 -1.1185
-5.5240002 67.390663 -1.0960001
-5.3527288 67.349037 -1.1054699
-5.6539836 67.668884 -1.1458666
-5.4948745 67.578377 -1.112
-5.8080001 67.900002 -1.197
-5.7474999 67.7565 -1.0625
-4.9136667 67.131554 -0.8548333
-5.5314999 67.486 -0.94749999
-5.1626391 67.344398 -0.85713893
-4.9246173 67.265083 -0.85618335
-5.6017861 67.667648 -0.85007143
-5.4685836 67.562584 -0.85891658
-5.7509999 67.796371 -0.84899998
-5.6991105 67.786446 -0.86199999
-4.6394644 66.707314 -0.62410718
-4.7690001 66.811501 -0.61175001
-5.0393338 67.236832 -0.6401667
-4.9005995 67.147301 -0.62670004
-5.1624761 67.35762 -0.61469042
-4.928 67.273041 -0.59391665
-5.5969048 67.697739 -0.63102382
-5.4689999 67.572083 -0.60695839
-5.7515001 67.804749 -0.67124999
-5.7114997 67.800392 -0.57516664
-4.6228142 66.718224 -0.36967596
-4.7697496 66.819748 -0.41291666
-5.039 67.237 -0.4515
-4.8862224 67.137672 -0.36491668
-5.3132 67.366013 -0.37842
-5.129704 67.347885 -0.35875002
-4.9322 67.276604 -0.36673331
-5.5973053 67.700813 -0.39819446
-5.4699168 67.582581 -0.38800001
-5.7220626 67.811539 -0.37660414
-4.6517997 66.714798 -0.134
-4.7705002 66.832664 -0.14433333
-4.6468248 66.75383 -0.097949997
-4.8388333 67.080666 -0.073666669
-5.3284502 67.374252 -0.11999998
-5.1489339 67.362671 -0.13060834
-4.9303002 67.288902 -0.13519999
-5.5776072 67.682014 -0.13509522
-5.4551253 67.55825 -0.16187499
-5.6369286 67.776855 -0.14589286
-4.6521602 66.724716 0.12274668
-4.7713332 66.844505 0.13616666
-4.65205 66.76265 0.100175
-4.8768749 67.119995 0.15000001
-5.32125 67.39653 0.14325
-5.1257687 67.35376 0.11593749
-4.9363337 67.295296 0.073600002
-5.5761294 67.703453 0.11892594
-5.4408336 67.534164 0.14116667
-5.6857224 67.810448 0.11122221
-4.6201 66.736801 0.37824997
-4.7718334 66.854752 0.40533334
-4.6504169 66.77491 0.35141668
-4.9300666 67.170433 0.36803335
-5.310842 67.41095 0.3880375
-5.0929437 67.340195 0.36610001
-4.9255333 67.326035 0.35969996
-5.5469608 67.701927 0.36634445
-5.4420004 67.547745 0.38925001
-5.7027502 67.818687 0.38575
-4.6370001 66.744499 0.59381253
-4.7728333 66.866333 0.65066665
-4.6478109 66.77581 0.6834777
-4.8881669 67.11483 0.58950001
-5.3316059 67.412651 0.61457223
-5.1014724 67.355904 0.64300931
-4.9539995 67.303307 0.66110003
-5.5218 67.701797 0.63519996
-5.44275 67.554497 0.61399996
-4.7732496 66.877251 0.88450003
-4.6426382 66.783958 0.88766658
-4.8379998 67.073494 0.84849995
-5.3288059 67.420471 0.85033333
-5.1140242 67.372726 0.9110238
-4.9624043 67.307236 0.89775419
-5.6178331 67.720665 0.86324996
-5.4434991 67.563667 0.85083336
-5.6040001 67.80217 0.86549997
-4.7738333 66.884834 1.1070833
-4.6401896 66.789825 1.1402425
-4.8384442 67.074448 1.1377777
-5.3201666 67.413719 1.1016548
-5.1209998 67.33783 1.1396817
-4.9680099 67.309448 1.1321201
-5.5853 67.723656 1.11762
-5.4442501 67.575256 1.087
-5.6053333 67.817497 1.1504999
-4.7748332 66.898994 1.3531666
-4.6552076 66.792709 1.3735428
-4.8395 67.091667 1.4278332
-5.3232999 67.400589 1.3789999
-5.136889 67.323547 1.3737363
-4.95645 67.336349 1.36825
-5.4583335 67.594879 1.3878334
-4.7940001 66.929001 1.6141666
-4.6510558 66.803604 1.5969499
-4.8531666 67.057503 1.6268333
-5.3152499 67.401123 1.6534585
-5.5499167 67.706245 1.5732502
-5.4457502 67.591995 1.608
-5.2795 66.994003 1.903
-5.1073503 66.967651 1.89925
-4.8672919 66.948029 1.8425313
-4.6564441 66.816727 1.8524168
-5.2589998 67.050995 1.906
-5.145 67.097496 1.9165
-4.9006667 67.06266 1.9526666
-5.11975 67.353058 1.8399444
-5.5371666 67.737999 1.8469167
-5.458375 67.598999 1.8733749
-5.7887001 67.905701 1.9152
-5.6511111 67.807137 1.8475834
-5.0190001 66.96875 2.0704999
-5.5587502 67.679749 2.1452498
-5.4961662 67.597008 2.0930002
-5.8352618 67.898483 2.1509049
-5.682807 67.802635 2.1092968
-5.4460001 66.987999 2.457
-4.8596354 66.891785 2.373271
-4.6363416 66.829895 2.3864751
-5.382 67.091499 2.4350002
-5.0920997 67.087997 2.4157
-4.9330001 67.108505 2.283
-5.1443095 67.385689 2.3274047
-5.5848999 67.614899 2.3476999
-5.8812137 67.869431 2.3567545
-5.7136669 67.77684 2.3808751
-4.8115001 66.703003 2.642
-4.6275716 66.577217 2.6242859
-5.3503332 66.985336 2.5100002
-4.9156189 66.875107 2.6280119
-5.5880237 67.427872 2.6501453
-5.7686667 67.626007 2.698
-5.6817503 67.561996 2.5956249
-6.1041112 67.890976 2.6577501
-5.9020381 67.821785 2.6026742
-5.1790004 67.012672 2.8823335
-6.0229998 67.633003 2.987
-5.8824668 67.615265 2.8580334
-6.3269529 67.877602 2.9104047
-6.1358566 67.834114 2.864023
-5.934639 67.76342 2.7913055
-6.0673304 67.4702 3.1669698
-6.1540327 67.636459 3.1260667
-6.6224174 67.867531 3.1575487
-6.3724585 67.829956 3.1107831
-6.2013335 67.776505 3.0550001
-6.105 66.976997 3.418
-6.1246424 67.11821 3.4250715
-5.8319998 67.074997 3.4760001
-6.5535002 67.455002 3.4695001
-6.3459029 67.437897 3.4182498
-6.1124253 67.410324 3.385787
-5.8631663 67.386299 3.3832777
-6.6020417 67.62571 3.4363749
-6.4023666 67.584435 3.3391335
-6.2480001 67.516998 3.263
-6.6363616 67.801857 3.3328888
-6.4397502 67.771996 3.2607501
-6.050055 66.977722 3.6292222
-5.9179997 66.978508 3.5994999
-6.6793752 67.08625 3.7203751
-6.0834665 67.065468 3.6569335
-5.8767838 67.056068 3.6302502
-6.8552027 67.390472 3.6743596
-6.6246576 67.425308 3.6063428
-6.3744683 67.386101 3.6112497
-6.1972222 67.392746 3.6136389
-5.7399998 67.375504 3.5180001
-6.2470002 67.500999 3.641
-6.6002336 66.978851 3.8825333
-6.8249998 67.100998 3.994
-6.6700001 67.015831 3.9145
-6.4112673 67.050133 3.8986001
-6.0987501 67.032249 3.82025
-6.6132293 67.384377 3.8146248
-6.3696871 67.357918 3.8451984
-6.2103 67.343002 3.8292999
-6.6706433 67.10585 4.0727854
-6.5689998 67.323997 4.039
