# .PCD v0.7 - Point Cloud Data file format
VERSION 0.7
FIELDS x y z
SIZE 4 4 4
TYPE F F F
COUNT 1 1 1
WIDTH 91
HEIGHT 1
VIEWPOINT -18.2321 96.2205 -1.35163 -0.354149 -0.00701479 0.0211809 0.934923
POINTS 91
DATA ascii
-88.056 -81.266998 23.483
-87.6605 -81.305496 23.3615
-87.898003 -81.182007 23.366001
-87.738998 -81.209999 23.341
-87.855675 -80.972328 23.362
-87.733002 -80.752998 23.431
-87.704002 -80.725998 23.336
-87.558327 -80.475998 23.363335
-87.231995 -79.956497 23.382
-87.067001 -79.692001 23.4205
-86.899002 -79.423996 23.376499
-86.473 -78.920502 23.39225
-88.302673 -81.846008 23.694
-88.073997 -81.873001 23.677999
-88.259003 -81.578499 23.688499
-88.004997 -81.563004 23.521999
-87.887497 -81.638504 23.534
-88.069336 -81.39933 23.531998
-87.938606 -81.094002 23.6548
-87.737999 -80.757996 23.562
-87.6035 -80.635498 23.699501
-87.579002 -80.497002 23.628
-87.43 -80.250999 23.743
-87.418503 -80.239502 23.608501
-87.139992 -79.872993 23.636
-87.087494 -79.711998 23.619999
-86.889999 -79.417 23.544001
-86.30925 -79.028748 23.63175
-86.242996 -79.053001 23.733999
-86.580498 -78.906998 23.57
-86.401001 -78.970001 23.541
-88.547997 -82.421997 23.971001
-88.485001 -82.481003 23.973
-88.398994 -82.150497 23.873667
-88.371498 -81.851341 23.870667
-88.283997 -81.602997 23.8685
-88.206001 -81.531998 23.981001
-87.943878 -81.111122 23.897625
-87.5355 -80.573502 23.852001
-87.485001 -80.528 23.969999
-87.543747 -80.4655 23.8995
-87.435997 -80.257004 23.827999
-87.339996 -80.169998 23.889
-87.175003 -80.018997 23.931
-87.122498 -79.914505 23.901001
-87.101997 -79.726997 23.924
-86.984001 -79.620003 23.979
-86.2295 -79.078003 23.865166
-86.565247 -78.893997 23.800251
-88.794998 -82.771004 24.232
-88.531998 -82.872002 24.148001
-88.801666 -82.698334 24.165335
-88.639252 -82.400253 24.115749
-88.478004 -82.129333 24.123335
-88.313995 -81.817001 24.063002
-88.165672 -81.608673 24.153334
-87.96167 -81.306999 24.086332
-87.804344 -81.038994 24.111666
-87.773003 -80.900002 24.032
-87.624496 -80.764 24.123001
-87.461502 -80.5075 24.135
-87.396667 -80.370331 24.074333
-87.242996 -80.307999 24.246
-87.272499 -80.218994 24.191999
-87.108002 -79.958336 24.169668
-86.988998 -79.959 24.24
-86.802002 -79.453331 24.098333
-86.209251 -79.052246 24.155499
-86.433998 -78.917999 24.119999
-88.766998 -83.094002 24.476999
-88.790001 -82.767998 24.32
-88.820999 -82.677002 24.309
-88.695 -82.679001 24.382999
-88.426003 -82.545998 24.488001
-88.583755 -82.404007 24.337999
-88.419998 -82.138 24.334
-88.278503 -81.821503 24.25
-88.152992 -81.905006 24.386667
-88.027496 -81.535995 24.299999
-87.895493 -81.303497 24.290501
-87.676498 -80.8675 24.258499
-87.412666 -80.642998 24.297998
-87.224998 -80.628998 24.403
-87.275002 -80.445 24.33
-87.014 -80.311996 24.323999
-86.991997 -80.292 24.405001
-87.137001 -80.210999 24.304001
-86.863998 -80.066002 24.385
-86.914001 -79.890999 24.306999
-86.867996 -79.738998 24.275
-88.530998 -82.752998 24.544001
