# .PCD v0.7 - Point Cloud Data file format
VERSION 0.7
FIELDS x y z
SIZE 4 4 4
TYPE F F F
COUNT 1 1 1
WIDTH 432
HEIGHT 1
VIEWPOINT -18.2321 96.2205 -1.35163 -0.354149 -0.00701479 0.0211809 0.934923
POINTS 432
DATA ascii
-45.606236 10.877004 9.8898687
-45.529327 11.1148 9.9145002
-45.491051 11.192101 9.8253002
-45.386906 11.318631 9.8397799
-45.198994 11.414196 9.9104004
-45.801144 10.404183 10.163929
-45.753998 10.553056 10.097555
-45.642418 10.643849 10.134583
-45.618965 10.869661 10.145713
-45.441124 10.945251 10.244124
-45.554539 11.100285 10.146233
-45.442551 11.158315 10.165541
-45.34938 11.339375 10.155698
-45.169556 11.455261 10.143037
-45.101036 11.645653 10.126436
-45.840748 10.159416 10.256583
-45.601803 10.379948 10.330982
-45.534584 10.582739 10.321212
-45.470825 10.643042 10.40863
-45.404686 10.863514 10.357519
-45.317822 11.118203 10.371613
-45.25 11.245399 10.347701
-45.278625 11.29575 10.276751
-45.195469 11.397471 10.385176
-45.104767 11.646836 10.371675
-44.568676 13.107677 10.380152
-43.91642 14.87304 10.394808
-43.815937 15.145959 10.373789
-45.51189 10.544333 10.641723
-45.46814 10.66334 10.632097
-45.385349 10.888724 10.641911
-45.295189 11.135018 10.626751
-45.252548 11.252636 10.742727
-45.202412 11.390038 10.614055
-45.110104 11.646101 10.617416
-45.023003 11.885166 10.601001
-44.992832 11.964916 10.648111
-44.935181 12.124572 10.64191
-44.841267 12.379891 10.635817
-44.774452 12.559375 10.599459
-44.726772 12.69103 10.643763
-44.662941 12.863155 10.63083
-44.57489 13.102765 10.627495
-44.470196 13.386119 10.627687
-44.396729 13.581772 10.594874
-44.298759 13.850486 10.639041
-44.194286 14.132663 10.639025
-44.094189 14.400734 10.62944
-44.025661 14.58517 10.602427
-43.990471 14.683483 10.604816
-43.918594 14.879963 10.62439
-43.827957 15.129612 10.635519
-45.513855 10.54977 10.897667
-45.4729 10.660607 10.884448
-45.388409 10.888435 10.895306
-45.296532 11.141548 10.886643
-45.198353 11.415421 10.871364
-45.114265 11.645248 10.863268
-45.024197 11.891812 10.857224
-44.993835 11.977833 10.906334
-44.939548 12.121282 10.882238
-44.851387 12.367041 10.878546
-44.791836 12.536758 10.873584
-44.729839 12.694968 10.894631
-44.667454 12.861024 10.872451
-44.567226 13.135857 10.870128
-44.500999 13.3255 10.875
-44.468796 13.402527 10.89568
-44.399128 13.599007 10.866384
-44.305462 13.850109 10.884576
-44.192253 14.157491 10.874846
-44.103729 14.387251 10.849693
-44.031376 14.588649 10.855567
-43.993893 14.689113 10.85011
-43.928616 14.866809 10.856324
-45.514442 10.559166 11.106443
-45.466782 10.688578 11.129484
-45.391972 10.891624 11.10355
-45.310913 11.11386 11.12457
-45.259712 11.253874 11.10121
-45.200649 11.422484 11.128463
-45.124851 11.62574 11.142847
-45.041275 11.860171 11.146371
-44.998058 11.977334 11.147445
-44.944885 12.122694 11.119888
-44.85474 12.369453 11.121675
-44.775948 12.584858 11.148101
-44.72644 12.713666 11.081927
-44.660667 12.894534 11.132087
-44.581268 13.112257 11.137812
-44.514042 13.295832 11.139051
-44.471313 13.406477 11.099689
-44.399048 13.610768 11.131096
-44.310894 13.850315 11.12735
-44.196922 14.158337 11.122032
-44.105705 14.406565 11.144006
-44.036366 14.594434 11.148499
-43.996113 14.697888 11.128555
-43.930172 14.878741 11.143631
-43.824024 15.167184 11.148769
-45.519489 10.559199 11.352801
-45.46471 10.708081 11.369242
-45.393963 10.89765 11.356081
-45.305965 11.143639 11.360285
-45.265903 11.2541 11.3602
-45.212307 11.406625 11.381746
-45.125183 11.638492 11.378438
-45.048023 11.854533 11.393754
-44.940243 12.152688 11.366698
-44.869408 12.34523 11.364477
-44.78159 12.588468 11.377877
-44.722626 12.743591 11.356556
-44.671501 12.887473 11.380503
-44.586044 13.115541 11.372652
-44.508499 13.325 11.3905
-44.4758 13.411 11.356895
-44.404522 13.60951 11.358656
-44.311245 13.862489 11.375524
-44.206917 14.144321 11.355841
-44.110386 14.414385 11.381713
-44.043522 14.627914 11.410048
-43.997002 14.6965 11.414
-44.019501 14.860001 11.497
-43.933533 14.880065 11.392742
-43.832123 15.157244 11.390477
-43.789001 15.262 11.448
-45.565624 10.609021 11.673201
-45.475986 10.683309 11.572483
-45.509003 10.807333 11.705
-45.423988 10.891183 11.609653
-45.336338 11.126493 11.60579
-45.292892 11.347044 11.672014
-45.213692 11.420809 11.586342
-45.137951 11.619775 11.639286
-45.07457 11.872435 11.621363
-45.036747 12.073718 11.625809
-44.964363 12.175676 11.579318
-44.896534 12.384009 11.58006
-44.749496 12.65775 11.522499
-44.714279 12.882591 11.560585
-44.649944 13.107728 11.597736
-44.523502 13.303888 11.630003
-44.48196 13.412913 11.643474
-44.502998 13.63 11.568
-44.432938 13.635799 11.599475
-44.353905 13.868225 11.543297
-44.311779 14.125123 11.578538
-44.214844 14.353036 11.601526
-44.505001 14.624 11.703
-44.132359 14.597501 11.544473
-44.020657 14.862747 11.600476
-43.94717 14.950834 11.600611
-43.840534 15.14828 11.620333
-43.782669 15.2775 11.602167
-45.693089 10.663289 11.879003
-45.546646 10.776857 11.944858
-45.278931 11.444015 11.862805
-45.193115 11.485944 11.838166
-45.134529 11.641774 11.882051
-45.089325 11.859879 11.860172
-44.643425 13.200767 11.843186
-44.530029 13.298399 11.877001
-44.484955 13.416972 11.890792
-44.503998 13.661833 11.8975
-44.443092 13.631378 11.86674
-44.230019 14.310214 11.867647
-44.011017 14.939882 11.903238
-43.952641 14.960144 11.852857
-43.857243 15.118063 11.875198
-43.795109 15.280278 11.858001
-45.688 10.628 12
-45.530212 10.760823 12.147162
-45.27528 11.460158 12.147083
-45.279835 11.50575 12.194416
-45.142868 11.634512 12.132752
-44.636585 13.207168 12.1
-44.536201 13.303142 12.128526
-44.480888 13.449444 12.101501
-44.511833 13.663166 12.107334
-44.451321 13.624973 12.133481
-44.316002 14.241501 12.243
-44.236183 14.343318 12.129152
-44.21925 14.591249 12.243375
-44.07848 14.882257 12.184513
-43.950718 14.970984 12.100166
-43.863705 15.114124 12.135443
-43.788006 15.296833 12.149222
-45.431675 11.134055 12.40627
-45.332535 11.376764 12.407302
-45.2715 11.502667 12.392167
-45.147949 11.636106 12.379633
-44.670422 13.164109 12.342094
-44.527821 13.340672 12.378375
-44.485401 13.450807 12.351827
-44.500999 13.691 12.485
-44.454731 13.653394 12.380055
-44.411312 13.911315 12.306558
-44.340137 14.115392 12.29832
-44.279999 14.256166 12.257667
-44.21574 14.396373 12.322124
-44.144497 14.605181 12.288735
-43.952305 14.97964 12.341805
-43.865574 15.129824 12.382606
-43.784836 15.304501 12.405001
-45.283001 11.47 12.603167
-45.167271 11.619758 12.639252
-44.635254 13.237251 12.592417
-44.527142 13.352184 12.601741
-44.486725 13.464001 12.641612
-44.511665 13.693501 12.610167
-44.452511 13.632484 12.640327
-43.873581 15.122397 12.616683
-43.810318 15.295959 12.66622
-45.288448 11.469777 12.850056
-45.271057 11.518211 12.852
-45.160286 11.631189 12.891635
-45.100735 11.886663 12.888278
-44.641499 13.237723 12.855779
-44.533676 13.352528 12.850902
-44.492085 13.465917 12.902166
-44.514164 13.693055 12.832278
-44.454746 13.63547 12.875506
-43.812611 15.299851 12.898759
-45.287334 11.468333 13.042667
-45.273182 11.518962 13.1463
-45.16404 11.638543 13.138121
-45.092602 11.918507 13.151052
-45.123127 12.047917 13.142084
-44.569992 13.327518 13.112615
-44.492054 13.479028 13.150556
-44.509499 13.7235 13.204332
-44.456024 13.622647 13.117032
-44.46566 13.758471 13.195672
-43.817459 15.300223 13.121445
-45.267876 11.532013 13.403063
-45.164204 11.654274 13.399896
-45.097473 11.887208 13.377626
-45.096043 12.034125 13.382833
-44.560608 13.346218 13.362668
-44.498001 13.482166 13.398167
-44.5215 13.726001 13.401
-44.462471 13.579062 13.367816
-44.473499 13.778722 13.424889
-43.885799 15.140635 13.372313
-43.830315 15.289803 13.39621
-45.290123 11.525709 13.630356
-45.17942 11.629222 13.645823
-45.095394 11.856627 13.594777
-45.117096 12.022161 13.62237
-44.578304 13.35305 13.647929
-44.514671 13.723 13.557333
-44.469257 13.640576 13.631711
-44.500999 13.751 13.734
-44.471542 13.798917 13.621
-44.017445 15.015945 13.64289
-43.904572 15.123994 13.66272
-43.815216 15.313651 13.59389
-45.563274 10.844073 13.945041
-45.519333 11.047 13.969334
-45.467407 11.097548 13.983524
-45.390633 11.33286 13.970573
-45.292068 11.531281 13.884682
-45.175816 11.650308 13.900364
-45.105 11.868324 13.856332
-45.104271 12.101385 13.893923
-45.01696 12.383917 13.928917
-44.976749 12.419708 13.956583
-45.004002 12.504 13.907
-44.906719 12.643912 13.889347
-44.842213 12.884674 13.902097
-44.768585 13.047584 13.911417
-44.723099 13.184451 13.908484
-44.599457 13.343655 13.883105
-44.501831 13.512333 13.893
-44.472801 13.590157 13.83479
-44.506416 13.8125 13.838833
-44.454166 13.847369 13.894131
-44.020145 15.023571 13.857286
-43.897202 15.153013 13.882795
-45.544346 10.85237 14.112342
-45.428169 11.188833 14.02475
-45.365887 11.357666 14.017112
-45.290031 11.548409 14.108774
-45.179958 11.652337 14.148366
-45.108612 11.844389 14.109381
-45.116009 12.049717 14.096359
-44.871502 12.692417 14.1895
-44.598858 13.352993 14.147965
-44.507748 13.516001 14.207625
-44.471207 13.61362 14.125351
-44.52317 13.797 14.169167
-44.473965 13.788068 14.1306
-44.035351 15.0358 14.149684
-43.906017 15.140057 14.110875
-45.778999 10.7 14.497
-45.630764 10.888261 14.465761
-45.594707 11.142259 14.485857
-45.461998 11.132 14.497999
-45.536751 11.394417 14.472166
-45.426334 11.372368 14.4867
-45.335529 11.5481 14.39166
-45.190075 11.641778 14.416824
-45.108608 11.857963 14.348773
-45.131195 12.130345 14.39743
-45.127197 12.383058 14.424798
-44.982361 12.420393 14.474107
-44.895935 12.671753 14.388391
-45.016499 12.81925 14.404249
-44.900253 12.899809 14.422272
-44.87611 13.121457 14.404905
-44.733215 13.193012 14.445898
-44.837502 13.304 14.386
-44.617508 13.352224 14.395362
-44.509403 13.525101 14.4025
-44.477589 13.624664 14.385303
-44.546661 13.880461 14.38174
-44.449482 13.872339 14.386969
-44.531403 14.0888 14.3569
-44.380417 14.142681 14.409316
-44.328369 14.353497 14.371054
-44.222717 14.403668 14.413696
-44.181694 14.617638 14.417326
-44.26025 14.853 14.32675
-44.111191 14.86953 14.389979
-43.986839 14.949667 14.461
-44.076019 15.031425 14.366166
-43.910507 15.145658 14.363697
-45.843788 10.323 14.552191
-45.791302 10.5928 14.513567
-45.624146 10.621613 14.621593
-45.595428 10.860765 14.548272
-45.464111 10.911722 14.652
-45.420834 11.123242 14.626805
-45.327389 11.371671 14.615481
-45.296753 11.548666 14.552418
-45.207016 11.619274 14.633503
-45.121193 11.848299 14.640876
-45.066566 12.104208 14.594829
-45 12.192 14.714
-45.028 12.3525 14.526501
-44.936237 12.385505 14.619112
-44.86095 12.642093 14.617485
-44.799175 12.817804 14.599029
-44.730766 12.947149 14.594925
-44.674953 13.121384 14.608252
-44.585613 13.35792 14.617778
-44.51289 13.531779 14.651222
-44.482353 13.611273 14.594421
-44.393562 13.858829 14.626627
-44.298111 14.117477 14.629223
-44.249378 14.244 14.54425
-44.19043 14.405892 14.639458
-44.099323 14.649614 14.596174
-44.011417 14.88864 14.645722
-43.987999 14.95118 14.603993
-43.921482 15.128675 14.620578
-45.570995 10.632608 14.868301
-45.508835 10.802112 14.846723
-45.46883 10.911496 14.848774
-45.395245 11.114529 14.879807
-45.305164 11.361643 14.854691
-45.212975 11.614473 14.863462
-45.114964 11.878648 14.881496
-45.039433 12.100465 14.86984
-44.99131 12.220375 14.873062
-44.932957 12.390488 14.859187
-44.840656 12.646232 14.902008
-44.777161 12.815666 14.869329
-44.729847 12.947255 14.85218
-44.670364 13.110963 14.874575
-44.580116 13.353114 14.875446
-44.515732 13.535583 14.897584
-44.482811 13.620325 14.856145
-44.404472 13.836817 14.873774
-44.282681 14.162513 14.866741
-44.198872 14.388961 14.872328
-44.105595 14.640833 14.85238
-44.02475 14.860068 14.86567
-43.98756 14.958221 14.846446
-43.918079 15.141598 14.859053
-45.575367 10.630991 15.128034
-45.508724 10.815166 15.146861
-45.471355 10.915549 15.102861
-45.406002 11.092767 15.129653
-45.312279 11.348508 15.1218
-45.247364 11.440819 15.247818
-45.208233 11.623335 15.140779
-45.115585 11.878187 15.131543
-45.03241 12.112532 15.120336
-44.940445 12.243334 15.235889
-44.925133 12.386612 15.134408
-44.826736 12.633675 15.138577
-44.737431 12.749144 15.227
-44.777199 12.809134 15.100449
-44.702171 12.939026 15.160482
-44.651413 13.108627 15.128084
-44.563389 13.347125 15.119817
-44.459946 13.461695 15.213943
-44.514778 13.542334 15.084167
-44.423737 13.652089 15.165084
-44.36129 13.85641 15.12533
-44.239777 13.947111 15.236001
-44.292 14.107646 15.083069
-44.201271 14.175516 15.183283
-44.149529 14.380603 15.137698
-44.078827 14.62263 15.106077
-43.950867 14.679601 15.220035
-44.012356 14.868519 15.061519
-43.90974 14.884552 15.174807
-43.872128 15.113544 15.113368
-45.366203 10.868358 15.36234
-45.326668 11.084287 15.312053
-45.203915 11.153491 15.419267
-45.28318 11.310251 15.267893
-45.141109 11.392686 15.379391
-45.085308 11.610744 15.34615
-45.057011 11.818897 15.287647
-44.879246 12.125042 15.35012
-44.805225 12.329277 15.333891
-44.71122 12.42849 15.41187
-44.769669 12.558666 15.2705
-44.647141 12.635269 15.384299
-44.588268 12.862135 15.34225
-44.551281 13.077983 15.275894
-44.453987 13.150617 15.372993
-44.395584 13.35603 15.363076
-44.304226 13.573038 15.346458
-44.263725 13.806522 15.265722
-44.185696 13.862167 15.355874
-44.113014 14.120239 15.377978
-44.086807 14.299425 15.339316
-43.906498 14.613833 15.339019
