# .PCD v0.7 - Point Cloud Data file format
VERSION 0.7
FIELDS x y z
SIZE 4 4 4
TYPE F F F
COUNT 1 1 1
WIDTH 331
HEIGHT 1
VIEWPOINT -18.2321 96.2205 -1.35163 -0.354149 -0.00701479 0.0211809 0.934923
POINTS 331
DATA ascii
-83.314003 -82.766998 1.168
-83.161659 -82.797997 1.2093333
-82.897003 -82.811996 1.247
-83.542 -82.608665 1.1926666
-83.385338 -82.676666 1.1210001
-84.002998 -82.288002 1.178
-83.882996 -82.368629 1.1295
-83.71067 -82.496666 1.178
-83.945335 -82.111664 1.1413335
-82.385002 -83.338997 1.462
-82.536339 -83.147331 1.4476666
-82.403 -83.244003 1.449
-83.289673 -82.779335 1.3779999
-83.085503 -82.821999 1.408
-82.818001 -82.84375 1.39475
-82.660667 -82.960167 1.4283333
-83.524902 -82.559303 1.3552001
-83.410751 -82.646255 1.3829166
-84.011002 -82.295998 1.341
-83.850334 -82.339523 1.4089375
-83.670326 -82.45517 1.4165001
-84.08625 -82.055374 1.357625
-83.936501 -82.102501 1.4087499
-79.374001 -85.167496 1.6900001
-79.777 -84.759003 1.632
-79.679932 -84.828995 1.6778666
-80.311996 -84.562256 1.70925
-80.170326 -84.621666 1.6856667
-79.948662 -84.622002 1.6996666
-80.769997 -84.262001 1.635
-80.599251 -84.349503 1.63375
-80.445419 -84.44783 1.6846666
-80.893753 -84.189377 1.6454999
-81.2948 -83.820595 1.6271999
-81.141495 -83.819 1.6845
-81.868301 -83.566902 1.6077
-81.659248 -83.710251 1.6385
-81.436005 -83.7145 1.627
-82.350746 -83.275749 1.60075
-82.549004 -83.158997 1.6
-82.456841 -83.202995 1.6153332
-83.071503 -82.807747 1.65325
-82.838379 -82.806625 1.6498749
-82.674339 -82.935165 1.6630834
-82.498001 -82.994003 1.6565
-83.553001 -82.537003 1.579
-83.383614 -82.615662 1.6376112
-83.213661 -82.703667 1.6496667
-83.850937 -82.307785 1.6342857
-83.648422 -82.423355 1.6719286
-84.061005 -82.060257 1.58775
-83.938004 -82.164001 1.65
-84.197594 -81.973198 1.6373999
-79.348778 -85.109947 1.8602778
-79.171249 -85.210999 1.8994999
-79.771004 -84.752998 1.875
-79.61425 -84.882599 1.8911501
-79.306 -84.977997 1.943
-80.313004 -84.500999 1.832
-80.182999 -84.576401 1.8957001
-79.874504 -84.681999 1.9361874
-80.60672 -84.32795 1.8637778
-80.408096 -84.441696 1.8950001
-81.079506 -84.022667 1.8521667
-80.899506 -84.137001 1.8493334
-80.744667 -84.235664 1.8793334
-81.315834 -83.790329 1.8176666
-81.204338 -83.847008 1.9156666
-81.840668 -83.543449 1.8523889
-81.652878 -83.662247 1.8589998
-81.411163 -83.691666 1.901
-81.939499 -83.474174 1.8588333
-82.541 -83.093002 1.8375
-82.377625 -83.203758 1.8584524
-83.0485 -82.783997 1.8975
-82.832504 -82.801003 1.92575
-82.654999 -82.939201 1.9186001
-82.492996 -82.988998 1.901
-83.356789 -82.591431 1.8612143
-83.150497 -82.691895 1.8429
-83.844498 -82.282829 1.8688332
-83.644844 -82.408089 1.8963056
-84.055168 -82.054329 1.8543333
-83.929604 -82.143906 1.8764999
-79.357391 -85.092934 2.1190557
-79.179001 -85.202003 2.1500001
-79.609825 -84.872002 2.1274548
-80.140205 -84.570786 2.1110713
-79.85585 -84.684212 2.1262167
-80.610802 -84.310265 2.1206667
-80.420395 -84.428268 2.1105332
-81.046249 -84.025124 2.115
-80.902946 -84.123001 2.1015499
-80.738831 -84.2295 2.1376667
-81.287003 -83.800995 2.0514998
-81.19133 -83.833336 2.1056666
-81.825996 -83.535332 2.1447501
-81.646431 -83.658859 2.1287858
-81.376747 -83.714417 2.17625
-82.300003 -83.252998 2.033
-81.934998 -83.469498 2.098
-82.509995 -83.119247 2.11025
-82.379501 -83.196701 2.0982001
-83.061996 -82.766502 2.1025
-82.871376 -82.797249 2.1499999
-82.66864 -82.921432 2.1295714
-82.490669 -82.987 2.1453333
-83.358253 -82.578247 2.1599376
-83.147903 -82.712204 2.1410999
-83.806831 -82.295082 2.1431668
-83.586838 -82.4366 2.1264999
-84.046844 -82.046509 2.1000001
-83.926582 -82.153084 2.1489999
-84.192497 -81.957161 2.1551669
-79.397186 -85.056129 2.3713126
-79.177635 -85.196785 2.3732142
-79.615059 -84.852692 2.3788753
-80.158371 -84.55925 2.3666878
-79.852432 -84.675858 2.3943572
-80.595001 -84.304298 2.3825002
-80.37822 -84.44043 2.3710713
-81.044334 -84.023499 2.339
-80.879501 -84.128868 2.3546429
-80.729004 -84.219002 2.4085002
-81.204163 -83.828255 2.3638334
-81.808624 -83.541962 2.3986669
-81.638 -83.650841 2.3478334
-81.392006 -83.683998 2.3796
-81.933334 -83.467659 2.3633335
-82.501999 -83.111 2.2550001
-82.366333 -83.192665 2.3506112
-82.879417 -82.791908 2.4009998
-82.656288 -82.916786 2.3894999
-82.485748 -82.982002 2.411
-83.361267 -82.565804 2.4230001
-83.131836 -82.708969 2.3961666
-83.813103 -82.279892 2.3920999
-83.63485 -82.393784 2.3900716
-83.494995 -82.480499 2.437
-84.065498 -82.025169 2.3423333
-83.944626 -82.144379 2.3933749
-84.184998 -81.949997 2.4007499
-79.376068 -85.042664 2.6183333
-79.609398 -84.849045 2.6201041
-79.417999 -84.974998 2.698
-80.352997 -84.544998 2.73
-80.106071 -84.550217 2.6249287
-79.872108 -84.654152 2.6107142
-80.591103 -84.288101 2.602
-80.380562 -84.412437 2.6066251
-80.176003 -84.481003 2.6789999
-80.872414 -84.138832 2.6359999
-80.731834 -84.18383 2.6156666
-81.2985 -83.7565 2.5795
-81.159622 -83.85862 2.62275
-81.855377 -83.550377 2.6543751
-81.649109 -83.655876 2.6080716
-81.398254 -83.675873 2.585125
-82.045998 -83.461998 2.6949999
-81.895248 -83.458252 2.5675001
-82.405533 -83.168564 2.5706668
-82.247002 -83.197998 2.6029999
-83.075752 -82.812004 2.6772499
-82.841583 -82.793083 2.6103332
-82.640587 -82.914284 2.6403887
-82.491501 -82.987 2.5945001
-83.547501 -82.532501 2.6845
-83.375877 -82.623123 2.6646249
-83.159401 -82.676697 2.5731001
-83.625801 -82.398201 2.5948
-83.410004 -82.458 2.5565
-84.071167 -82.011002 2.6536667
-83.926025 -82.131172 2.6167221
-84.179832 -81.945 2.6463335
-79.543747 -85.049255 2.8170002
-79.390999 -85.14463 2.8431332
-79.659752 -84.871498 2.8722498
-80.306999 -84.577995 2.8206666
-80.132698 -84.590103 2.8868001
-79.870499 -84.647675 2.8609164
-79.744995 -84.724998 2.8899999
-80.780998 -84.273499 2.8195
-80.637329 -84.359673 2.8146667
-80.457748 -84.469749 2.8122501
-81.263435 -83.770836 2.8561113
-81.892998 -83.574005 2.799
-81.6689 -83.712502 2.8282001
-81.396835 -83.674332 2.8496666
-82.053001 -83.469002 2.7750001
-83.108002 -82.844254 2.822
-82.842171 -82.797295 2.9194
-83.765999 -82.515999 2.7920001
-83.240997 -82.749496 2.7525001
-83.977753 -82.262756 2.9194999
-84.064751 -82.005249 2.8927498
-83.978195 -82.0802 2.8678002
-84.172874 -81.938248 2.9126248
-79.673584 -84.934418 3.0989165
-80.135162 -84.584999 3.1076667
-79.906006 -84.611565 3.0895
-79.693871 -84.7295 3.1149998
-80.9515 -84.279999 3.2354999
-82.042 -83.578003 3.1819999
-81.858162 -83.607506 3.2263334
-81.637169 -83.709663 3.1581666
-81.387901 -83.676102 3.1034
-82.071999 -83.488998 3.1860001
-83.331497 -82.893997 3.1355
-82.823334 -82.77401 3.1303332
-83.847 -82.596001 3.122
-83.619667 -82.603668 3.1326668
-83.403885 -82.670563 3.1756668
-83.214996 -82.723999 3.2030001
-82.933334 -82.733498 3.1393335
-83.905434 -82.321426 3.1457143
-83.679001 -82.431 3.198
-84.038254 -82.091248 3.115
-83.971672 -82.066666 3.0829999
-79.698997 -85.276001 3.279
-79.565002 -85.010002 3.3800001
-79.381393 -85.136795 3.3828125
-79.669838 -84.941498 3.3556669
-80.3424 -84.581299 3.3216
-80.201668 -84.615669 3.3586667
-79.904213 -84.592331 3.3527777
-79.68766 -84.723663 3.3385
-80.764671 -84.256325 3.3473332
-80.445 -84.457001 3.382
-80.893402 -84.1717 3.3657002
-81.246666 -83.759666 3.3536665
-82.007004 -83.543999 3.4300001
-81.869858 -83.588425 3.3747141
-81.642799 -83.706802 3.3658001
-81.391502 -83.669167 3.3391666
-82.053001 -83.469666 3.3479998
-83.172447 -82.797005 3.3826668
-82.814697 -82.772903 3.3837998
-84.097 -82.548004 3.4625001
-83.384743 -82.680252 3.3660834
-83.214005 -82.723 3.3245001
-82.895004 -82.695496 3.4115
-83.893288 -82.359291 3.368
-83.689423 -82.419838 3.2555833
-84.025665 -82.190666 3.358
-83.949829 -82.009834 3.3485
-84.118164 -81.950172 3.4121335
-79.681725 -84.939888 3.6097221
-80.195251 -84.608246 3.5822501
-79.86586 -84.611389 3.6432498
-79.666702 -84.712997 3.6306
-79.977997 -84.5 3.6210001
-82.003494 -83.539505 3.6122499
-81.851448 -83.636063 3.638375
-81.62986 -83.690285 3.6355712
-81.384331 -83.661919 3.6510832
-82.078751 -83.49575 3.6147499
-83.259003 -82.767502 3.7365
-83.184799 -82.814499 3.6121998
-82.795303 -82.775406 3.6225998
-84.082832 -82.534996 3.6336663
-83.593582 -82.577087 3.5888331
-83.41185 -82.679573 3.6482141
-82.88475 -82.685257 3.59425
-83.901161 -82.36216 3.6335001
-83.941666 -82.002327 3.6613333
-84.11306 -81.944878 3.6535625
-79.759506 -85.100494 3.8885
-79.674004 -85.009003 3.7609999
-79.698334 -84.908333 3.8456669
-80.184334 -84.597008 3.8470001
-79.85836 -84.606323 3.8732142
-79.623245 -84.714005 3.8872499
-82.001999 -83.538002 3.7954998
-81.872948 -83.614876 3.8844287
-81.656166 -83.68766 3.8848333
-81.36438 -83.664238 3.8995001
-82.071335 -83.48867 3.839
-83.255753 -82.764252 3.9007499
-83.1325 -82.805496 3.9060001
-82.760002 -82.783997 3.911
-84.015503 -82.5215 3.9070001
-83.588249 -82.55175 3.849
-83.408005 -82.672195 3.8967004
-82.850502 -82.708504 3.8606665
-83.829376 -82.406998 3.8521249
-83.712997 -82.464996 3.855
-79.800331 -85.144341 4.0939999
-79.692245 -84.902496 4.1112499
-80.176254 -84.588501 4.1105003
-79.865082 -84.593582 4.1294165
-79.668694 -84.690697 4.1679001
-79.977997 -84.5 4.0679998
-81.860527 -83.611214 4.1344585
-81.711334 -83.701996 4.1383328
-81.364296 -83.645256 4.1526256
-82.063332 -83.480164 4.1533337
-83.136833 -82.773834 4.0935831
-82.755501 -82.779251 4.0959997
-83.593597 -82.528404 4.1061001
-83.392143 -82.660278 4.1417217
-83.237503 -82.746994 4.1455002
-82.845871 -82.703499 4.086
-83.637001 -82.496002 4.1880002
-79.685165 -84.894829 4.348
-80.163506 -84.575836 4.3475003
-79.881638 -84.572334 4.3774171
-79.653999 -84.694115 4.390389
-81.865883 -83.59742 4.388042
-81.714127 -83.679504 4.4043751
-81.371376 -83.617767 4.4151335
-82.056747 -83.473251 4.3899999
-83.119751 -82.766006 4.3709998
-83.599251 -82.522003 4.3592501
-83.391998 -82.647621 4.3829374
-83.231003 -82.740005 4.3494997
-82.839996 -82.698174 4.3509998
-83.658005 -82.463501 4.4309998
-79.678001 -84.887337 4.6590004
-79.848396 -84.582886 4.6471667
-79.651199 -84.697403 4.6212001
-81.860641 -83.589073 4.6210713
-81.679497 -83.670502 4.6405001
-81.3955 -83.589256 4.639833
-82.04834 -83.465332 4.6560001
-83.115669 -82.753166 4.5665002
-83.586166 -82.529335 4.5675001
-83.366341 -82.65023 4.6042781
-83.181 -82.746506 4.7065001
-82.838623 -82.697121 4.6170001
-83.67289 -82.466118 4.6064448
-83.367752 -82.596626 4.8439374
