# .PCD v0.7 - Point Cloud Data file format
VERSION 0.7
FIELDS x y z
SIZE 4 4 4
TYPE F F F
COUNT 1 1 1
WIDTH 868
HEIGHT 1
VIEWPOINT -18.2321 96.2205 -1.35163 -0.354149 -0.00701479 0.0211809 0.934923
POINTS 868
DATA ascii
-43.363667 -108.09299 22.478333
-43.6105 -107.876 22.449501
-43.5 -107.929 22.445
-44.0905 -107.548 22.4825
-43.908501 -107.69225 22.491249
-44.350502 -107.325 22.45225
-44.647671 -107.09794 22.44039
-45.049999 -106.783 22.441999
-44.865833 -106.93467 22.447668
-45.33675 -106.58424 22.455
-45.180332 -106.68533 22.431665
-45.7565 -106.273 22.473499
-45.597252 -106.35851 22.4175
-45.450001 -106.474 22.407
-46.045998 -106.0305 22.432999
-45.890747 -106.12825 22.41375
-45.739998 -106.23399 22.382
-46.325195 -105.817 22.445
-46.168781 -105.92222 22.411001
-46.596878 -105.573 22.392
-46.456001 -105.6945 22.409752
-47.028999 -105.252 22.417999
-46.85033 -105.38025 22.391167
-46.683998 -105.479 22.339001
-47.313 -105.101 22.299999
-47.08717 -105.14983 22.362501
-43.291 -108.269 22.677999
-43.171169 -108.32767 22.616667
-43.579201 -108.03939 22.660801
-43.392719 -108.16258 22.624002
-43.843201 -107.81387 22.627331
-43.698601 -107.9267 22.607203
-44.105083 -107.59983 22.616999
-43.942497 -107.728 22.6255
-44.5425 -107.278 22.675499
-44.389061 -107.39236 22.633564
-44.198002 -107.481 22.51
-44.827999 -107.065 22.669127
-44.639858 -107.19279 22.609854
-45.260498 -106.774 22.7425
-45.087498 -106.84317 22.632416
-44.92675 -106.96425 22.62425
-45.544998 -106.502 22.677999
-45.387524 -106.61494 22.599762
-45.244251 -106.734 22.609249
-45.821503 -106.32325 22.692499
-45.657951 -106.39948 22.605667
-46.096111 -106.07083 22.654722
-45.903332 -106.18134 22.571501
-46.551998 -105.778 22.733999
-46.382931 -105.85822 22.640429
-46.216999 -105.9525 22.617748
-46.774498 -105.5365 22.620251
-46.619396 -105.65594 22.608044
-47.051003 -105.30299 22.5555
-46.930504 -105.42571 22.594286
-43.195 -108.512 22.989
-43.345497 -108.31342 22.879572
-43.182331 -108.39683 22.841166
-43.764 -108.05099 22.9865
-43.595333 -108.09225 22.858583
-43.417999 -108.172 22.84
-44.068001 -107.815 22.941999
-43.873081 -107.88342 22.887917
-43.720001 -107.9415 22.879501
-44.352253 -107.5685 22.919874
-44.134937 -107.65613 22.827688
-43.946503 -107.739 22.797001
-44.622669 -107.355 22.914665
-44.364502 -107.443 22.827251
-45.104 -107.02 22.959499
-44.865833 -107.13383 22.865835
-44.720333 -107.18633 22.829
-45.3456 -106.809 22.9109
-45.144783 -106.882 22.850931
-44.910999 -106.9785 22.817501
-45.614861 -106.59035 22.900713
-45.43475 -106.658 22.79425
-46.061001 -106.2705 22.929001
-45.886112 -106.36514 22.882751
-45.700752 -106.44875 22.79525
-46.301254 -106.07437 22.897373
-46.154499 -106.18534 22.9055
-45.952499 -106.1295 22.77
-46.5895 -105.8409 22.885601
-46.384624 -105.97038 22.848873
-46.811832 -105.65025 22.860415
-46.692497 -105.6855 22.821999
-51.243 -102.322 22.999001
-51.504002 -102.131 22.997
-51.843498 -101.833 22.969
-52.088501 -101.601 22.960499
-51.958 -101.704 22.957001
-43.252998 -108.53951 23.168499
-43.205002 -108.536 23.08
-43.565498 -108.3065 23.1525
-43.408218 -108.42355 23.145
-43.852303 -108.0743 23.1618
-43.64925 -108.1935 23.085335
-44.307999 -107.757 23.240999
-44.119366 -107.8679 23.137638
-43.953499 -107.973 23.093
-44.562 -107.52 23.115
-44.385777 -107.65177 23.120335
-44.840641 -107.30772 23.139429
-44.617504 -107.46445 23.086222
-45.117764 -107.09178 23.123569
-44.958 -107.192 23.0735
-45.550335 -106.78867 23.200666
-45.382626 -106.88168 23.126312
-45.813503 -106.54633 23.1
-45.667427 -106.66595 23.125429
-46.098751 -106.33167 23.126917
-45.922001 -106.45551 23.098001
-46.5555 -106.02925 23.216751
-46.366554 -106.13049 23.123665
-46.212502 -106.221 23.070999
-46.762001 -105.845 23.233999
-46.661163 -105.8725 23.101831
-46.768002 -105.674 23.136999
-48.794502 -104.2765 23.209499
-48.896 -104.204 23.158001
-50.754002 -102.784 23.176001
-50.604248 -102.89101 23.180252
-50.443001 -102.9285 23.216749
-51.053001 -102.5705 23.209499
-50.876499 -102.65133 23.118082
-50.730999 -102.737 23.080999
-51.344246 -102.32675 23.172375
-51.118752 -102.396 23.018
-51.653877 -102.09475 23.179375
-51.417999 -102.19199 23.068335
-52.077667 -101.78699 23.205667
-51.89275 -101.91776 23.198668
-52.104 -101.6335 23.1325
-43.336201 -108.58669 23.3829
-43.237999 -108.6225 23.309
-43.595379 -108.36475 23.372124
-43.448002 -108.475 23.33
-44.056999 -108.0155 23.364
-43.8652 -108.15111 23.3645
-43.703999 -108.223 23.285999
-44.298 -107.81863 23.36825
-44.158253 -107.932 23.35125
-44.624149 -107.5895 23.368599
-44.436375 -107.70437 23.370874
-45.042747 -107.298 23.433748
-44.890747 -107.37167 23.350668
-44.746498 -107.4365 23.250999
-45.3195 -107.0245 23.396999
-45.177998 -107.12122 23.361778
-45.582001 -106.8 23.32
-45.412498 -106.93 23.317501
-46.040501 -106.539 23.445499
-45.854416 -106.58065 23.376915
-46.308002 -106.33174 23.443501
-46.139286 -106.4035 23.349644
-45.983002 -106.495 23.268999
-46.59 -106.105 23.410601
-46.415627 -106.21875 23.384125
-46.678749 -105.92375 23.35375
-47.605247 -105.3175 23.445999
-47.722 -105.233 23.447001
-49.301998 -104.025 23.424
-49.1618 -104.0934 23.3627
-48.891998 -104.16916 23.362501
-49.587502 -103.7995 23.413502
-49.394745 -103.92593 23.373499
-50.620667 -103.00767 23.451668
-51.009998 -102.762 23.493
-50.8442 -102.82021 23.3888
-50.680626 -102.93075 23.345749
-51.261002 -102.554 23.483999
-51.136837 -102.59689 23.389896
-50.948334 -102.7215 23.329834
-51.542 -102.29575 23.410501
-51.405102 -102.39839 23.397701
-51.242001 -102.45 23.259001
-51.826599 -102.0654 23.373999
-51.666431 -102.17579 23.356358
-52.251999 -101.838 23.275
-52.083332 -101.86283 23.371834
-51.928333 -101.975 23.362665
-43.292999 -108.7645 23.68
-43.570877 -108.55737 23.67375
-43.389431 -108.65492 23.600285
-43.61375 -108.38625 23.557501
-44.828838 -107.56583 23.630499
-44.932835 -107.45917 23.568335
-45.318001 -107.022 23.585501
-45.205376 -107.0615 23.601875
-46.543999 -106.2715 23.673
-46.384495 -106.36157 23.619928
-46.195 -106.4855 23.596001
-47.797501 -105.2955 23.668499
-47.652996 -105.36086 23.613214
-47.896248 -105.19138 23.617374
-49.335754 -104.10183 23.630333
-49.166332 -104.20599 23.609777
-49.613899 -103.9011 23.650198
-49.453499 -103.9765 23.5485
-49.7715 -103.7135 23.6075
-50.696999 -103.034 23.577
-51.093166 -102.77801 23.666
-50.878452 -102.92056 23.634907
-50.577 -102.985 23.552
-51.331001 -102.563 23.613001
-51.163666 -102.67983 23.596502
-51.751999 -102.268 23.676001
-51.613361 -102.35114 23.629358
-51.465004 -102.45675 23.612499
-52.278 -102.063 23.551001
-52.038002 -102.049 23.691999
-51.877056 -102.14816 23.627388
-51.734001 -102.229 23.582001
-52.103832 -101.96334 23.601501
-43.388203 -108.8138 23.888199
-43.611919 -108.62301 23.865915
-43.4645 -108.7165 23.835499
-45.038002 -107.55424 23.91725
-44.891308 -107.64244 23.877375
-46.439377 -106.42575 23.83325
-47.877422 -105.35825 23.917084
-47.952499 -105.245 23.816
-49.573101 -104.0592 23.902399
-49.389668 -104.16534 23.850109
-49.670746 -103.94 23.80925
-51.271 -102.759 23.931
-51.111111 -102.85544 23.859112
-50.931999 -102.967 23.827
-51.5285 -102.54 23.8855
-51.359665 -102.66134 23.853666
-51.25 -102.714 23.750999
-51.862122 -102.29363 23.918501
-51.667072 -102.42143 23.876785
-52.088799 -102.1326 23.8962
-51.94725 -102.21825 23.868
-43.602875 -108.78275 24.161499
-43.446835 -108.8755 24.122499
-43.691498 -108.6895 24.110498
-44.827332 -107.83001 24.1465
-45.101063 -107.62888 24.164623
-44.949497 -107.71433 24.099833
-46.546249 -106.52225 24.178249
-46.640778 -106.41389 24.117056
-48.083202 -105.30611 24.1357
-47.927334 -105.4165 24.115166
-48.157001 -105.216 24.087
-49.797501 -104.05251 24.226
-49.627846 -104.1291 24.136351
-49.440498 -104.2295 24.054501
-49.837875 -103.94987 24.101
-51.086498 -103.03616 24.1915
-51.314137 -102.8308 24.1374
-51.171501 -102.9079 24.065001
-51.613888 -102.59858 24.135557
-51.4375 -102.70599 24.083698
-52.035664 -102.27767 24.149834
-51.863213 -102.39449 24.128572
-51.748001 -102.448 24.069
-52.067001 -102.198 24.056
-43.488998 -109.024 24.469999
-43.620144 -108.87172 24.370358
-43.468498 -108.9715 24.331501
-45.061337 -107.77633 24.401833
-44.88744 -107.88607 24.357689
-45.284443 -107.61623 24.41511
-45.177998 -107.663 24.348999
-46.589874 -106.578 24.365501
-46.801201 -106.4352 24.405201
-46.712997 -106.4525 24.3055
-48.028 -105.508 24.458
-48.304001 -105.277 24.426001
-48.137222 -105.37811 24.363834
-47.962502 -105.46 24.265499
-48.295998 -105.22625 24.30175
-49.842075 -104.10571 24.398357
-51.308998 -103.003 24.474001
-51.110626 -103.11757 24.390877
-51.553497 -102.78101 24.429501
-51.402626 -102.88544 24.388689
-51.241501 -102.9595 24.258499
-51.804668 -102.581 24.412666
-51.658855 -102.66414 24.346643
-52.063 -102.42167 24.409666
-51.931 -102.4376 24.3372
-43.5625 -109.05784 24.646166
-43.76775 -108.88425 24.601749
-43.656399 -108.9584 24.591999
-44.85675 -108.04458 24.644583
-45.275002 -107.763 24.683001
-45.121124 -107.85287 24.629688
-44.973251 -107.9375 24.58975
-45.308334 -107.70033 24.620333
-45.18 -107.735 24.507
-46.549999 -106.789 24.702
-46.381401 -106.85954 24.626534
-46.793999 -106.54025 24.60125
-46.630749 -106.67449 24.611437
-47.16 -106.374 24.583
-46.854 -106.484 24.573999
-48.105213 -105.56107 24.659286
-47.90057 -105.67757 24.625214
-48.310402 -105.39799 24.661499
-48.199001 -105.43766 24.573668
-49.07 -105.059 24.587999
-49.124001 -104.993 24.591
-49.773499 -104.2735 24.637001
-49.888 -104.16809 24.605919
-51.317902 -103.08409 24.633001
-51.157875 -103.17876 24.576748
-51.613708 -102.85886 24.65243
-51.432331 -102.96833 24.605333
-52.060001 -102.536 24.638
-51.872753 -102.64485 24.64155
-51.717999 -102.741 24.559999
-52.032001 -102.481 24.540001
-43.802002 -109.0325 24.959499
-43.620716 -109.11823 24.844286
-43.845398 -108.8962 24.844202
-45.066666 -108.03767 24.895834
-45.313499 -107.83299 24.890902
-45.181702 -107.91618 24.847101
-45.683502 -107.5865 24.993999
-45.354 -107.739 24.778
-45.927998 -107.41901 24.994667
-46.398251 -107.02275 24.94425
-46.085331 -107.16167 24.945
-46.751499 -106.759 24.971001
-46.581142 -106.86686 24.907141
-46.425251 -106.928 24.813999
-47.060001 -106.537 24.996
-46.870144 -106.61835 24.867643
-46.698997 -106.73425 24.83
-47.343002 -106.2795 24.917999
-47.136169 -106.41199 24.909836
-47.595501 -106.094 24.9585
-47.447502 -106.2145 24.948
-47.890835 -105.81534 24.872667
-47.737999 -105.9725 24.9375
-48.268997 -105.564 24.917999
-48.112583 -105.65391 24.857252
-48.591663 -105.323 24.945665
-48.400253 -105.41325 24.855499
-49.046001 -105.012 24.999001
-48.859497 -105.09437 24.890875
-48.670502 -105.24126 24.908501
-49.275249 -104.798 24.94075
-49.137753 -104.85663 24.8815
-49.589371 -104.55225 24.920124
-49.401299 -104.6719 24.880299
-49.842186 -104.34688 24.884686
-49.679001 -104.46299 24.880667
-50.265999 -104.002 24.833
-50.102352 -104.14757 24.893572
-49.954002 -104.2005 24.7745
-50.59325 -103.7965 24.925001
-50.401829 -103.9115 24.878836
-50.673752 -103.68824 24.854918
-51.258999 -103.279 24.955
-51.121082 -103.34134 24.851583
-51.527248 -103.05175 24.8955
-51.383564 -103.1425 24.854
-51.237499 -103.233 24.816
-51.831249 -102.81538 24.910376
-51.649998 -102.92186 24.842285
-52.013 -102.624 24.834
-51.919445 -102.69022 24.822779
-43.598499 -109.3075 25.1775
-43.881599 -109.07841 25.1614
-43.683914 -109.202 25.100334
-44.27 -108.774 25.184999
-44.12167 -108.88342 25.165085
-43.973251 -108.9645 25.108002
-44.564167 -108.55267 25.173166
-44.374599 -108.67879 25.123098
-44.848083 -108.31433 25.136415
-44.663498 -108.42716 25.103666
-45.120235 -108.10238 25.129427
-44.947666 -108.20334 25.069334
-45.552002 -107.799 25.179001
-45.384155 -107.9081 25.138451
-45.807499 -107.55618 25.106333
-45.641426 -107.69728 25.127356
-46.263 -107.27 25.23
-46.083569 -107.366 25.136143
-45.923664 -107.48066 25.120001
-46.5555 -107.03101 25.199501
-46.365337 -107.12534 25.096611
-46.201 -107.228 25.054001
-46.849503 -106.80163 25.191
-46.66407 -106.90121 25.117071
-47.102196 -106.5874 25.164902
-46.913834 -106.68884 25.074667
-47.551998 -106.251 25.16
-47.352707 -106.35113 25.087582
-47.157501 -106.474 25.018501
-47.801498 -106.06425 25.192249
-47.653877 -106.14026 25.120375
-48.068798 -105.8267 25.130899
-47.8787 -105.9281 25.053301
-48.35228 -105.61794 25.1495
-48.159168 -105.71133 25.050165
-48.852501 -105.26649 25.221001
-48.632248 -105.39168 25.125126
-48.457001 -105.49 25.046
-49.079628 -105.06599 25.167751
-48.918571 -105.14465 25.093069
-48.747002 -105.2485 25.0415
-49.3596 -104.8343 25.1192
-49.190502 -104.95066 25.098166
-49.758003 -104.536 25.158501
-49.639439 -104.62788 25.148876
-49.451 -104.732 25.066
-50.071404 -104.3168 25.171101
-49.89463 -104.43338 25.136688
-50.350666 -104.07166 25.121168
-50.181499 -104.1745 25.0515
-50.782001 -103.774 25.166
-50.635586 -103.86178 25.117167
-50.450001 -103.96375 25.05625
-51.055748 -103.5445 25.132
-50.878788 -103.67222 25.127857
-51.352398 -103.3197 25.1569
-51.164429 -103.43557 25.102072
-51.763 -103.019 25.215
-51.600113 -103.11195 25.130608
-51.445332 -103.19917 25.061666
-51.884216 -102.87614 25.10457
-51.748001 -102.988 25.125
-43.786499 -109.301 25.448168
-43.661999 -109.34825 25.351751
-44.060127 -109.04726 25.377251
-43.898201 -109.1662 25.354401
-44.357597 -108.816 25.383499
-44.167252 -108.96425 25.373123
-44.766998 -108.54501 25.456665
-44.617313 -108.62782 25.387562
-44.450668 -108.70333 25.299002
-45.039501 -108.2775 25.358
-44.882751 -108.42117 25.391167
-45.3269 -108.0799 25.3894
-45.173 -108.17193 25.347857
-45.611752 -107.85383 25.387167
-45.452 -107.9765 25.3885
-46.058998 -107.5225 25.415501
-45.888699 -107.63481 25.3797
-45.7435 -107.73199 25.3685
-46.334 -107.31462 25.417875
-46.153332 -107.41233 25.331499
-46.622643 -107.07221 25.375502
-46.445999 -107.1888 25.34
-47.056 -106.751 25.407
-46.886211 -106.86343 25.362499
-46.75 -106.9545 25.341999
-47.357666 -106.54367 25.444666
-47.160191 -106.65725 25.368973
-47.571835 -106.32932 25.354834
-47.418198 -106.4521 25.366701
-48.068001 -106.018 25.487
-47.888 -106.09728 25.389927
-47.73275 -106.207 25.369749
-48.313751 -105.81599 25.484751
-48.162998 -105.88168 25.381876
-47.959999 -105.9735 25.252499
-48.58075 -105.56875 25.389
-48.424126 -105.68538 25.377375
-48.871334 -105.33907 25.373798
-48.688126 -105.46249 25.342751
-49.298664 -105.049 25.43
-49.143497 -105.12522 25.36157
-49.59 -104.7897 25.3738
-49.402874 -104.91801 25.350126
-49.832581 -104.59933 25.373251
-49.677334 -104.71033 25.349335
-50.303253 -104.27175 25.411751
-50.133312 -104.39301 25.406126
-49.958 -104.484 25.33
-50.565399 -104.0668 25.419399
-50.405437 -104.15569 25.352501
-50.846252 -103.83392 25.372168
-50.695599 -103.9297 25.340401
-51.273003 -103.54467 25.463001
-51.120392 -103.61573 25.377222
-50.935001 -103.73 25.323
-51.550499 -103.3325 25.452999
-51.386356 -103.40499 25.366571
-52.036999 -103.032 25.384001
-51.845142 -103.05585 25.405285
-51.662334 -103.18692 25.377417
-51.931335 -102.94067 25.306334
-43.68 -109.517 25.698
-43.858337 -109.34717 25.641251
-43.681 -109.43766 25.562332
-44.118164 -109.13256 25.626778
-43.9585 -109.206 25.532499
-44.540333 -108.85567 25.708666
-44.388287 -108.91171 25.605429
-44.858101 -108.5892 25.6689
-44.663498 -108.701 25.591999
-45.261002 -108.26649 25.654499
-45.113083 -108.36359 25.617666
-44.961666 -108.447 25.561335
-45.567749 -108.04649 25.67775
-45.389439 -108.14688 25.620438
-45.860249 -107.81208 25.669916
-45.657532 -107.91233 25.564602
-46.129353 -107.59475 25.6495
-45.9575 -107.69901 25.602001
-46.548328 -107.28833 25.672998
-46.391663 -107.37268 25.613249
-46.245499 -107.4415 25.528
-46.793671 -107.07517 25.627584
-46.632702 -107.18529 25.6099
-47.105644 -106.83236 25.61636
-46.926624 -106.954 25.581749
-47.502998 -106.546 25.669001
-47.370667 -106.63258 25.62533
-47.220001 -106.723 25.576
-47.822601 -106.3042 25.661001
-47.650688 -106.41193 25.618998
-48.066875 -106.08788 25.626125
-47.908623 -106.1825 25.571125
-48.583 -105.7705 25.7495
-48.373928 -105.85442 25.626783
-48.153999 -105.994 25.566
-48.789501 -105.55099 25.658001
-48.654686 -105.62074 25.596312
-49.078247 -105.3125 25.617876
-48.891304 -105.4387 25.583599
-49.385418 -105.09991 25.6625
-49.205002 -105.20599 25.598333
-49.807499 -104.78474 25.67325
-49.622055 -104.90361 25.63378
-49.467999 -104.98 25.556
-50.075203 -104.57381 25.662802
-49.900356 -104.66071 25.57786
-50.371998 -104.32317 25.625334
-50.198002 -104.45075 25.619751
-50.782166 -104.05733 25.697332
-50.625801 -104.1182 25.599499
-50.465 -104.237 25.591999
-51.076672 -103.79501 25.657501
-50.888641 -103.92079 25.606785
-51.337833 -103.59084 25.648249
-51.132248 -103.70875 25.578751
-51.751999 -103.2765 25.6695
-51.593334 -103.37067 25.609251
-51.416668 -103.47934 25.550001
-51.890602 -103.1322 25.614401
-51.7355 -103.2425 25.578999
-43.825001 -109.5425 25.959499
-43.719666 -109.579 25.884499
-44.101002 -109.293 25.907999
-43.890499 -109.43088 25.838249
-44.354214 -109.09972 25.905285
-44.196999 -109.17888 25.832123
-44.841003 -108.7595 25.959499
-44.634438 -108.86844 25.871626
-44.436001 -108.972 25.7985
-45.076252 -108.54275 25.914249
-44.902874 -108.64837 25.85675
-44.7425 -108.728 25.764
-45.351601 -108.3138 25.873901
-45.185699 -108.41 25.8214
-45.63356 -108.10156 25.878944
-45.455002 -108.206 25.812
-46.047501 -107.812 25.937
-45.897858 -107.88435 25.859213
-45.744499 -107.948 25.767
-46.341602 -107.563 25.899601
-46.156097 -107.6899 25.870401
-46.612415 -107.33334 25.865082
-46.42775 -107.46325 25.83625
-47.056 -107.0495 25.937
-46.895336 -107.12534 25.85675
-46.733002 -107.219 25.826
-47.306751 -106.8215 25.8895
-47.178085 -106.909 25.864916
-47.599712 -106.57865 25.867069
-47.416996 -106.70226 25.826166
-48.049999 -106.2765 25.952499
-47.877125 -106.37556 25.872751
-47.749001 -106.494 25.909
-48.296001 -106.0584 25.883701
-48.124928 -106.15479 25.83143
-48.596287 -105.82957 25.889425
-48.422504 -105.93337 25.835625
-49.014999 -105.5265 25.921501
-48.868874 -105.61625 25.888252
-48.695499 -105.723 25.8445
-49.312332 -105.28367 25.886999
-49.14645 -105.39478 25.862667
-48.988998 -105.47 25.778
-49.573334 -105.073 25.890501
-49.4062 -105.1874 25.854198
-50.044502 -104.7655 25.986
-49.847801 -104.863 25.8708
-49.701672 -104.95966 25.858665
-50.300003 -104.5575 25.959
-50.166645 -104.61164 25.864857
-49.947502 -104.7475 25.8095
-50.582375 -104.31787 25.907124
-50.393169 -104.41575 25.827913
-50.866005 -104.08311 25.883499
-50.667 -104.2048 25.827398
-51.125999 -103.86626 25.878601
-50.967003 -103.978 25.837
-51.57 -103.57162 25.950125
-51.396568 -103.66232 25.867188
-51.249001 -103.7195 25.762001
-52.062 -103.437 25.909
-51.838497 -103.31382 25.894415
-51.667717 -103.42265 25.826284
-51.931 -103.174 25.761
-44.035999 -109.51 26.205
-43.865997 -109.61806 26.151783
-43.743 -109.681 26.083
-44.292 -109.283 26.167
-44.123238 -109.36591 26.078857
-43.936001 -109.495 26.042999
-44.577164 -109.061 26.156168
-44.396069 -109.17378 26.107428
-44.851124 -108.84074 26.126751
-44.696167 -108.95867 26.133833
-45.289497 -108.552 26.232
-45.136715 -108.60664 26.117001
-44.949001 -108.716 26.056999
-45.528252 -108.3295 26.14575
-45.398563 -108.39832 26.096251
-45.85675 -108.05884 26.135498
-45.6562 -108.1984 26.1077
-46.258003 -107.7755 26.149
-46.115143 -107.86878 26.141859
-45.943333 -107.958 26.067335
-46.53825 -107.57325 26.1945
-46.383255 -107.64733 26.111502
-46.226002 -107.701 26.000999
-46.85125 -107.29312 26.115999
-46.668915 -107.41717 26.085249
-47.276001 -107.039 26.226999
-47.113503 -107.1037 26.1318
-46.954124 -107.20476 26.08275
-47.564831 -106.79083 26.205168
-47.374435 -106.9025 26.130312
-47.240002 -106.957 26.035999
-47.813499 -106.54175 26.09
-47.65675 -106.66669 26.100082
-48.272999 -106.262 26.229
-48.109627 -106.34863 26.159563
-47.948002 -106.45125 26.118
-48.552662 -106.035 26.205332
-48.374287 -106.13786 26.142715
-48.201 -106.209 26.043999
-48.803997 -105.796 26.137667
-48.654171 -105.91458 26.129333
-49.10775 -105.571 26.153875
-48.937248 -105.69263 26.128498
-49.53175 -105.2655 26.16675
-49.344143 -105.38206 26.131285
-49.214336 -105.451 26.075003
-49.793499 -105.0415 26.132999
-49.642429 -105.14307 26.114285
-49.458 -105.241 26.0205
-50.094597 -104.81779 26.1422
-49.923897 -104.91893 26.087
-50.509998 -104.52 26.188999
-50.3535 -104.60976 26.155376
-50.180332 -104.71934 26.086668
-50.759998 -104.286 26.127001
-50.627003 -104.40257 26.154858
-50.446499 -104.4795 26.041
-51.081375 -104.05412 26.144249
-50.893082 -104.18134 26.117249
-50.742001 -104.247 26.031
-51.35062 -103.84731 26.153812
-51.20575 -103.94901 26.123999
-51.820999 -103.507 26.221001
-51.639336 -103.6021 26.125832
-51.436501 -103.733 26.0665
-51.856098 -103.41539 26.104401
-43.806499 -109.78224 26.385252
-44.1255 -109.56529 26.442699
-43.924305 -109.6693 26.357098
-44.360783 -109.342 26.368927
-44.200375 -109.433 26.31625
-44.816002 -109.027 26.437
-44.643162 -109.12008 26.367418
-44.458 -109.247 26.332001
-45.077999 -108.81087 26.4025
-44.918835 -108.90549 26.346916
-45.501999 -108.526 26.493
-45.359001 -108.57261 26.3806
-45.186001 -108.69675 26.358749
-45.639561 -108.37131 26.387314
-45.480499 -108.4725 26.349501
-46.035751 -108.05125 26.37125
-45.863289 -108.16 26.359283
-45.729 -108.229 26.264999
-46.334583 -107.82776 26.379251
-46.151749 -107.9585 26.366501
-46.8055 -107.506 26.4405
-46.612072 -107.62779 26.394787
-46.446835 -107.7075 26.306168
-47.072834 -107.30067 26.445833
-46.898003 -107.39275 26.372374
-46.741001 -107.468 26.291
-47.365501 -107.0555 26.40625
-47.158855 -107.17771 26.335072
-47.783001 -106.78 26.485001
-47.621082 -106.83483 26.374247
-47.433502 -106.95525 26.2985
-47.247002 -106.976 26.298
-48.030499 -106.5405 26.4
-47.875816 -106.63486 26.359999
-47.748001 -106.699 26.291
-48.313503 -106.32217 26.393667
-48.154121 -106.43687 26.384375
-48.616901 -106.0853 26.395199
-48.423252 -106.2085 26.36125
-49.035999 -105.772 26.4095
-48.876858 -105.86764 26.369785
-48.709499 -105.959 26.301001
-49.326 -105.5365 26.414501
-49.133373 -105.66162 26.355749
-49.610416 -105.33475 26.408165
-49.423496 -105.43313 26.339125
-50.031502 -105.0275 26.431499
-49.884747 -105.11433 26.394249
-49.678001 -105.225 26.290001
-50.288876 -104.79588 26.378876
-50.136333 -104.90209 26.353834
-49.999001 -104.957 26.285999
-50.585876 -104.56287 26.381626
-50.4202 -104.6766 26.368
-50.875248 -104.32983 26.382002
-50.710331 -104.43833 26.351999
-51.268501 -104.031 26.374001
-51.108776 -104.14877 26.370502
-50.9505 -104.224 26.289501
-52.067001 -103.823 26.417
-51.556599 -103.80061 26.378698
-51.3965 -103.92962 26.377375
-51.799747 -103.58537 26.352501
-51.684834 -103.6905 26.367668
-44.043999 -109.773 26.714001
-43.890915 -109.84566 26.622751
-44.28775 -109.54401 26.623749
-44.129333 -109.66492 26.634748
-43.942001 -109.745 26.535999
-44.571098 -109.33159 26.6518
-44.415501 -109.43671 26.6227
-44.863129 -109.09225 26.634937
-44.679699 -109.19869 26.571301
-45.285664 -108.80733 26.701334
-45.117931 -108.8975 26.624573
-44.966999 -108.979 26.545
-45.585751 -108.54774 26.652126
-45.399719 -108.66886 26.611572
-45.842144 -108.35271 26.655287
-45.710751 -108.44625 26.630751
-46.258835 -108.0395 26.67
-46.118 -108.10734 26.598167
-45.951111 -108.22299 26.556223
-46.576599 -107.79179 26.653599
-46.397167 -107.90533 26.622503
-46.242001 -107.963 26.511
-46.860798 -107.571 26.640799
-46.694 -107.6685 26.598751
-47.281502 -107.277 26.6905
-47.145813 -107.35168 26.643999
-46.967499 -107.4665 26.58
-47.561249 -107.0305 26.639
-47.392334 -107.13609 26.595917
-47.836697 -106.8209 26.646702
-47.659401 -106.9261 26.595901
-48.251503 -106.534 26.7185
-48.101562 -106.60888 26.640186
-47.957668 -106.70334 26.588333
-48.545502 -106.28101 26.657499
-48.379124 -106.38481 26.611626
-48.179001 -106.471 26.527
-48.802502 -106.0843 26.6604
-48.631073 -106.17614 26.590359
-49.123123 -105.83769 26.673
-48.932999 -105.93862 26.589874
-49.543999 -105.518 26.677
-49.373051 -105.61265 26.6117
-49.153999 -105.747 26.535
-49.826336 -105.29667 26.645666
-49.665199 -105.40089 26.614798
-50.119999 -105.07168 26.656502
-49.917164 -105.19867 26.606665
-50.541 -104.774 26.702999
-50.377857 -104.86057 26.632498
-50.209 -104.96634 26.590002
-50.816666 -104.53284 26.665501
-50.614941 -104.65962 26.605188
-51.111252 -104.29626 26.648333
-50.89658 -104.42242 26.5895
-51.527 -104.008 26.719
-51.354282 -104.0825 26.619284
-51.210667 -104.17233 26.574999
-51.772999 -103.792 26.714001
-51.627251 -103.87325 26.63225
-51.456497 -103.9585 26.5245
-51.815502 -103.71487 26.622999
-51.743999 -103.731 26.528
-44.259499 -109.7515 26.973
-44.087402 -109.83482 26.8986
-43.916203 -109.9376 26.833797
-44.353855 -109.61015 26.857645
-44.18375 -109.7285 26.824249
-44.785999 -109.32834 26.954666
-44.637424 -109.39457 26.864429
-45.0994 -109.0615 26.9063
-44.888699 -109.18611 26.8487
-45.551003 -108.757 26.983
-45.360554 -108.84967 26.888639
-45.186001 -108.93766 26.796333
-45.794331 -108.52734 26.904669
-45.618752 -108.64225 26.871813
-46.093624 -108.331 26.957874
-45.931126 -108.40188 26.874374
-46.527 -108.004 26.958
-46.366283 -108.09022 26.903929
-46.136749 -108.21763 26.823999
-46.798832 -107.7785 26.921667
-46.605 -107.88067 26.861
-46.455498 -107.9425 26.765499
-47.066254 -107.55025 26.890999
-46.886929 -107.65143 26.827785
-47.347878 -107.35126 26.912251
-47.17038 -107.44738 26.851252
-47.63364 -107.1105 26.875
-47.397247 -107.228 26.778749
-48.051498 -106.7855 26.885
-47.855873 -106.89487 26.818501
-48.307495 -106.591 26.892334
-48.165001 -106.6802 26.855799
-48.59325 -106.34388 26.847
-48.421665 -106.464 26.823999
-49.036999 -106.009 26.843
-48.917797 -106.0812 26.813396
-48.72525 -106.23625 26.831751
-49.313 -105.804 26.827999
-49.177998 -105.89466 26.828333
-49.602249 -105.55624 26.826002
-49.41275 -105.6785 26.7945
-50.047001 -105.257 26.862
-49.8615 -105.353 26.811417
-49.691002 -105.467 26.785
-50.129498 -105.14225 26.801001
-50.562 -104.818 26.801001
-50.389999 -104.94175 26.802
-50.851997 -104.578 26.7925
-50.700748 -104.6865 26.780251
-51.0415 -104.415 26.7635
-50.945999 -104.494 26.764999
-51.409668 -104.14249 26.7845
-44.128597 -109.8976 27.053202
-44.533997 -109.5535 27.015999
-44.388248 -109.692 27.0495
-44.779999 -109.383 27.076
-44.632999 -109.469 27
-45.136333 -109.11033 27.032
-44.946999 -109.2375 27.011
-45.353001 -108.9345 27.019001
