# .PCD v0.7 - Point Cloud Data file format
VERSION 0.7
FIELDS x y z
SIZE 4 4 4
TYPE F F F
COUNT 1 1 1
WIDTH 114
HEIGHT 1
VIEWPOINT -18.2321 96.2205 -1.35163 -0.354149 -0.00701479 0.0211809 0.934923
POINTS 114
DATA ascii
-35.479 84.989998 26.459999
-35.478168 84.982666 26.655664
-35.480503 85.144165 26.635834
-35.481247 84.986496 26.895248
-35.484001 85.148499 26.895
-35.491169 85.335999 26.855001
-35.480167 84.979668 27.142832
-35.482166 85.139839 27.136667
-35.491669 85.331833 27.144999
-35.508499 85.544502 27.092499
-35.487999 84.994003 27.440001
-35.487251 85.070251 27.410751
-35.506001 85.360001 27.496
-35.495003 85.337006 27.381001
-35.52383 85.578163 27.366333
-35.542709 85.881256 27.376459
-35.481499 84.97525 27.59075
-35.487 85.14325 27.61075
-35.494499 85.331253 27.60775
-35.505501 85.529999 27.632
-35.5 85.513 27.733
-35.550999 85.889374 27.605375
-35.452667 84.900002 27.899332
-35.490749 85.147003 27.8925
-35.495003 85.328003 27.852749
-35.502998 85.518997 27.945999
-35.497002 85.504997 27.802
-35.553799 85.892601 27.830801
-35.478001 84.959 28.059
-35.4935 85.151505 28.088501
-35.498749 85.331757 28.10125
-35.507835 85.606163 28.145498
-35.527 85.868874 28.111874
-35.528004 86.088997 28.137833
-35.532665 86.393005 28.176666
-35.470497 84.935997 28.3675
-35.487 85.128502 28.4335
-35.504002 85.338997 28.474001
-35.495998 85.324997 28.257
-35.510998 85.637329 28.353998
-35.514 85.876495 28.407
-35.531666 86.147331 28.425333
-35.535374 86.364632 28.35675
-35.513 85.188004 28.629
-35.497002 85.150002 28.545
-35.487835 85.383751 28.583834
-35.511002 85.605003 28.5695
-35.521 85.889 28.6255
-35.520248 86.145248 28.558001
-35.452 86.124001 28.645332
-35.529499 86.439499 28.6675
-35.550999 86.656006 28.633001
-35.554749 87.526001 28.6875
-35.4935 85.136993 28.859501
-35.477753 85.311752 28.918751
-35.511002 85.682999 28.768
-35.524498 85.894501 28.8405
-35.515835 86.046997 28.858667
-35.441666 86.095001 28.826002
-35.536247 86.615997 28.898998
-35.532501 86.772003 28.901249
-35.464165 86.790993 28.856333
-35.560001 87.198997 28.885
-35.56625 87.421494 28.880375
-35.549 87.510002 28.846001
-35.484665 87.539337 28.856001
-35.598999 87.985001 28.905001
-35.555752 88.211502 28.905001
-35.492249 88.358505 28.965
-35.466221 85.171272 29.109777
-35.473 85.252998 29.080999
-35.5145 85.864502 29.150501
-35.440113 85.892235 29.180334
-35.521999 86.575996 29.153999
-35.440002 86.539001 29.181
-35.438335 86.896667 29.095001
-35.455498 87.098503 29.167
-35.55275 87.342003 29.086502
-35.470333 87.402992 29.146166
-35.459 87.633499 29.097748
-35.470001 87.845001 29.1635
-35.554333 88.090004 29.067667
-35.4855 88.166122 29.171249
-35.487 88.371674 29.096334
-35.516502 88.689499 29.139999
-35.494999 88.634003 29.232
-35.533501 88.820496 29.074501
-35.499001 88.820999 29.145
-35.36425 84.618004 29.336498
-35.361374 84.851257 29.391251
-35.367332 85.135994 29.341333
-35.37167 85.393669 29.367998
-35.378002 85.614502 29.389599
-35.332001 85.752998 29.469999
-35.429001 86.181 29.332001
-35.415001 86.308998 29.351
-35.426998 86.693001 29.253
-35.442001 86.903 29.288
-35.421333 87.127007 29.340002
-35.418167 87.418159 29.405832
-35.432999 87.657379 29.35675
-35.427998 87.867668 29.392664
-35.448502 88.156494 29.33725
-35.449001 88.406746 29.376751
-35.4655 88.643494 29.380001
-35.2995 84.656998 29.542999
-35.294998 85.143997 29.507
-35.324001 85.394997 29.523001
-35.330498 85.664505 29.5895
-35.341999 85.776001 29.549999
-35.352001 86.316002 29.570999
-35.401001 87.666 29.504
-35.384998 87.822998 29.507999
-35.410999 88.060997 29.502001
