# .PCD v0.7 - Point Cloud Data file format
VERSION 0.7
FIELDS x y z
SIZE 4 4 4
TYPE F F F
COUNT 1 1 1
WIDTH 68
HEIGHT 1
VIEWPOINT -18.2321 96.2205 -1.35163 -0.354149 -0.00701479 0.0211809 0.934923
POINTS 68
DATA ascii
104.214 -36.317001 14.182
104.38233 -36.463333 14.125667
104.1212 -36.141602 14.199201
104.119 -35.918503 14.24
104.245 -36.327 14.341
104.3712 -36.423401 14.359799
104.12638 -36.125687 14.386375
104.119 -35.86375 14.410625
104.214 -36.315002 14.691
104.3525 -36.407249 14.6115
104.08669 -36.087833 14.615917
104.11491 -35.875095 14.626094
104.15601 -35.594101 14.622699
104.215 -36.314999 14.811
104.3195 -36.351501 14.941999
104.08417 -36.111919 14.887917
104.11612 -35.860561 14.868812
104.15511 -35.6092 14.876001
104.17963 -35.450249 14.87575
104.37575 -36.39225 15.126501
104.08958 -36.110783 15.116858
104.11281 -35.858688 15.122938
104.15675 -35.600624 15.102
104.17133 -35.473331 15.147166
104.41067 -36.410831 15.373666
104.10931 -36.116562 15.361938
104.10976 -35.898479 15.373124
104.14545 -35.617977 15.342452
104.16087 -35.442375 15.4015
104.243 -36.321999 15.676
104.37033 -36.396332 15.564334
104.0765 -36.083374 15.592875
104.11288 -35.871185 15.634062
104.14101 -35.601501 15.6252
104.15399 -35.459503 15.57575
104.2275 -36.316002 15.889999
104.3655 -36.408001 15.8515
104.05929 -36.118469 15.858111
104.11314 -35.841785 15.881785
104.15389 -35.589199 15.882901
104.16117 -35.44083 15.904167
104.181 -36.2995 16.1
104.383 -36.456497 16.208
104.05339 -36.105934 16.124166
104.10526 -35.854927 16.101248
104.14829 -35.602699 16.120098
104.1545 -35.437832 16.150917
104.412 -36.62825 16.411499
104.08884 -36.266003 16.346498
104.3395 -36.44075 16.418251
104.04781 -36.125202 16.374668
104.10703 -35.853416 16.352028
104.15079 -35.586201 16.368601
104.15756 -35.442554 16.408777
104.3657 -36.659496 16.656399
104.16166 -36.349331 16.620333
104.293 -36.424 16.549
104.04438 -36.143562 16.665188
104.09943 -35.880787 16.641644
104.14107 -35.632 16.640572
104.18034 -35.458668 16.586334
104.3234 -36.547401 16.871801
104.11566 -36.361004 16.848999
104.03214 -36.154167 16.91111
104.0975 -35.8932 16.894199
104.13735 -35.641357 16.883608
104.256 -36.491001 17.072001
104.07667 -35.909668 17.082001
