0.6571 -0.6233 0.5989 70 29 47
0.6788 -0.6184 0.5947 70 28 47
0.7051 -0.6146 0.5866 70 29 47
0.7325 -0.6138 0.5774 70 29 47
0.7547 -0.6056 0.5721 70 29 47
0.8616 -0.6113 0.5749 62 24 40
0.8760 -0.6140 0.5909 59 23 38
3.8274 -0.6144 0.5838 97 95 93
0.6829 -0.5933 0.5972 70 29 47
0.7074 -0.5880 0.5938 71 29 47
0.7350 -0.5851 0.5861 70 29 47
0.7640 -0.5837 0.5785 71 29 48
0.7942 -0.5803 0.5763 71 29 48
0.8251 -0.5792 0.5746 70 28 47
0.8551 -0.5837 0.5781 67 27 45
0.8749 -0.5841 0.5900 62 24 40
3.8274 -0.5848 0.5832 97 96 93
0.7093 -0.5650 0.5970 70 29 47
0.7367 -0.5575 0.5949 70 29 48
0.7650 -0.5552 0.5914 70 29 47
0.7944 -0.5549 0.5869 71 29 47
0.8243 -0.5548 0.5838 70 29 47
0.8545 -0.5550 0.5871 68 27 45
0.8764 -0.5547 0.5953 64 25 42
3.8276 -0.5551 0.5859 98 97 94
0.7393 -0.5337 0.5984 71 29 48
0.7660 -0.5325 0.5970 70 29 47
0.7965 -0.5295 0.5949 71 29 47
0.8253 -0.5282 0.5936 70 28 46
0.8546 -0.5299 0.5953 69 28 46
0.8736 -0.5340 0.5989 67 27 45
3.8276 -0.5248 0.5843 98 97 94
3.8278 -0.4954 0.5859 99 99 97
-1.1402 -0.4558 0.5946 137 125 110
-1.1396 -0.4567 0.5813 139 126 112
3.8279 -0.4649 0.5864 99 99 97
-1.1402 -0.4343 0.5913 139 126 110
-1.1396 -0.4385 0.5834 139 126 111
3.8281 -0.4342 0.5848 100 100 98
-1.1395 -0.4045 0.5796 141 127 110
3.8280 -0.4045 0.5862 101 101 100
-1.1392 -0.3752 0.5748 147 132 114
3.8279 -0.3749 0.5855 102 102 101
-1.1389 -0.3488 0.5742 151 135 116
3.8281 -0.3452 0.5850 101 101 100
-1.1390 -0.3120 0.5732 155 138 117
3.8282 -0.3147 0.5854 101 101 100
-1.1388 -0.2871 0.5715 152 136 114
3.8285 -0.2841 0.5839 100 101 100
3.8282 -0.2544 0.5852 100 101 100
3.8285 -0.2247 0.5847 100 101 100
3.8286 -0.1951 0.5842 100 101 100
3.8283 -0.1649 0.5854 99 100 99
3.8287 -0.1347 0.5842 99 100 99
3.8285 -0.1034 0.5854 100 101 100
-1.1044 -0.0645 0.5742 169 148 121
3.8288 -0.0752 0.5843 101 102 102
-1.1045 -0.0438 0.5756 169 148 120
-0.6619 -0.0391 0.5732 203 178 152
-0.6455 -0.0377 0.5837 203 178 150
-0.6246 -0.0370 0.5918 204 179 150
3.8288 -0.0458 0.5851 103 104 104
-1.1046 -0.0119 0.5778 172 149 120
-0.6619 -0.0158 0.5732 210 184 154
-0.6439 -0.0154 0.5835 212 185 154
-0.6245 -0.0149 0.5919 213 185 154
3.8289 -0.0165 0.5856 102 103 102
-1.1049 0.0159 0.5829 172 149 118
-0.6617 0.0156 0.5731 223 193 158
-0.6438 0.0148 0.5833 223 193 158
-0.6249 0.0147 0.5913 224 194 158
3.8291 0.0145 0.5837 102 103 102
-1.1049 0.0451 0.5852 176 152 121
-0.6619 0.0440 0.5725 234 201 163
-0.6439 0.0455 0.5832 233 200 161
-0.6244 0.0450 0.5922 235 201 162
3.8289 0.0458 0.5867 102 103 102
-1.1050 0.0752 0.5849 178 154 123
-0.6617 0.0742 0.5723 240 206 165
-0.6439 0.0754 0.5828 240 205 164
-0.6250 0.0751 0.5912 241 206 164
3.8292 0.0754 0.5846 100 101 101
-1.1051 0.1056 0.5851 177 153 122
-0.6618 0.1059 0.5725 242 208 166
-0.6436 0.1053 0.5829 242 207 165
-0.6243 0.1052 0.5923 242 207 165
3.8292 0.1051 0.5853 101 102 102
-1.1052 0.1356 0.5844 176 153 123
-0.6623 0.1360 0.5735 239 205 164
-0.6441 0.1354 0.5827 239 205 164
-0.6247 0.1350 0.5914 239 205 164
3.8291 0.1348 0.5859 101 103 102
-1.1053 0.1647 0.5845 176 153 124
-0.6623 0.1640 0.5737 234 201 162
-0.6449 0.1655 0.5831 232 200 161
-0.6246 0.1652 0.5925 231 199 160
3.8296 0.1644 0.5839 101 102 102
-1.1053 0.1939 0.5850 175 152 124
-0.6622 0.1937 0.5732 226 195 159
-0.6453 0.1921 0.5839 224 194 158
-0.6251 0.1916 0.5918 221 191 157
3.8294 0.1961 0.5859 101 102 102
-1.1055 0.2247 0.5848 171 149 122
-0.6424 0.2122 0.5764 206 180 151
3.8297 0.2257 0.5838 102 103 103
-1.1056 0.2555 0.5851 171 149 122
3.8296 0.2554 0.5844 102 103 104
-1.1056 0.2845 0.5852 186 160 126
3.8296 0.2856 0.5863 101 103 102
-1.1058 0.3147 0.5850 194 166 130
3.8297 0.3147 0.5840 100 102 102
-1.1059 0.3450 0.5847 186 160 126
3.8297 0.3455 0.5853 100 102 101
-1.1059 0.3746 0.5852 181 157 124
3.8301 0.3748 0.5828 99 100 100
-1.1061 0.4052 0.5846 176 153 123
3.8298 0.4055 0.5855 98 100 99
-1.1061 0.4333 0.5854 171 149 121
3.8300 0.4348 0.5847 98 99 98
3.8303 0.4633 0.5849 98 100 99
3.8302 0.4950 0.5868 100 101 101
3.8303 0.5242 0.5841 99 100 100
3.8303 0.5561 0.5857 98 99 99
3.8305 0.5859 0.5852 98 100 100
3.8305 0.6144 0.5850 98 100 100
3.8306 0.6443 0.5857 98 99 99
3.8307 0.6736 0.5835 97 98 98
3.8307 0.7066 0.5848 97 98 98
3.8307 0.7363 0.5843 95 96 96
3.8308 0.7649 0.5841 95 96 95
3.8309 0.7933 0.5839 94 96 95
3.8312 0.8232 0.5835 94 96 95
3.8310 0.8568 0.5849 95 97 96
3.8311 0.8860 0.5847 95 97 96
3.8311 0.9155 0.5862 94 95 94
3.8312 0.9453 0.5857 93 94 93
3.8314 0.9739 0.5856 93 94 93
3.8315 1.0051 0.5846 94 95 94
3.8316 1.0341 0.5857 95 96 95
3.8314 1.0661 0.5853 94 95 94
2.4450 1.1098 0.5898 113 113 116
2.4730 1.1098 0.5815 112 113 116
2.5094 1.1098 0.5925 112 112 115
2.5354 1.1098 0.5862 111 111 115
2.5543 1.1099 0.5851 111 111 115
2.5913 1.1098 0.5874 110 111 114
2.6253 1.1095 0.5875 110 111 114
2.6603 1.1099 0.5863 110 111 114
2.6858 1.1097 0.5852 110 110 114
2.7167 1.1096 0.5837 109 110 114
2.7460 1.1095 0.5776 109 110 113
3.8316 1.0959 0.5848 85 86 85
-1.1157 1.1258 0.5833 125 116 104
-1.1002 1.1356 0.5790 150 138 127
-0.6082 1.1237 0.5775 157 145 134
-0.5840 1.1237 0.5838 156 144 134
-0.5542 1.1236 0.5851 156 144 134
-0.5246 1.1235 0.5850 155 144 134
-0.4945 1.1233 0.5845 155 144 135
-0.4641 1.1233 0.5846 154 144 135
-0.4342 1.1231 0.5854 154 144 135
-0.4047 1.1231 0.5858 153 144 135
-0.3750 1.1229 0.5852 153 143 136
-0.3512 1.1229 0.5879 152 143 136
2.2070 1.1111 0.5854 116 117 121
2.2341 1.1110 0.5846 116 117 121
2.2636 1.1110 0.5854 115 116 120
2.2945 1.1108 0.5874 115 116 120
2.3233 1.1109 0.5855 114 115 119
2.3544 1.1107 0.5834 114 114 118
2.3858 1.1108 0.5844 113 114 117
2.4161 1.1105 0.5877 113 113 117
2.4439 1.1106 0.5835 113 113 116
2.4769 1.1106 0.5862 112 112 115
2.5040 1.1107 0.5802 112 112 115
2.5342 1.1104 0.5861 111 111 115
2.5666 1.1105 0.5844 111 111 115
2.5975 1.1103 0.5873 111 111 115
2.6258 1.1102 0.5820 110 111 114
2.6497 1.1103 0.5809 110 111 114
2.6860 1.1102 0.5876 110 110 114
2.7406 1.1104 0.5803 109 110 113
3.7985 -1.3840 0.6141 88 83 81
-0.9604 -1.3630 0.6244 91 61 42
-0.9458 -1.3638 0.6114 84 55 39
-0.9261 -1.3639 0.6014 79 48 29
-0.6355 -1.3618 0.6064 43 32 28
-0.6169 -1.3673 0.6151 53 37 29
-0.5846 -1.3717 0.6141 88 55 37
-0.5546 -1.3718 0.6145 90 57 41
-0.5251 -1.3720 0.6150 90 57 41
-0.4948 -1.3722 0.6155 90 58 42
-0.4651 -1.3723 0.6158 88 57 41
-0.4351 -1.3719 0.6150 89 57 43
-0.4048 -1.3722 0.6156 85 54 41
-0.3747 -1.3721 0.6154 85 55 41
-0.3453 -1.3719 0.6152 86 56 42
-0.3150 -1.3720 0.6149 85 55 41
-0.2848 -1.3719 0.6155 83 55 42
-0.2553 -1.3719 0.6150 83 54 41
-0.2256 -1.3720 0.6156 82 54 40
-0.1957 -1.3719 0.6155 79 52 39
-0.1656 -1.3718 0.6156 78 50 38
-0.1400 -1.3710 0.6189 75 48 36
3.7988 -1.3651 0.6150 89 84 82
-0.9260 -1.3384 0.6104 69 53 45
-0.8213 -1.3285 0.6107 94 92 90
-0.7942 -1.3283 0.6147 95 93 92
-0.7643 -1.3281 0.6143 95 94 92
-0.7353 -1.3281 0.6149 88 87 88
-0.7052 -1.3280 0.6152 92 90 88
-0.6750 -1.3279 0.6154 97 94 91
-0.6411 -1.3304 0.6129 89 82 78
-0.6226 -1.3367 0.6202 79 66 61
3.7988 -1.3359 0.6146 90 85 83
-0.9127 -1.3167 0.6168 90 88 86
-0.8859 -1.3168 0.6149 91 90 89
-0.8552 -1.3168 0.6141 91 91 90
-0.8244 -1.3168 0.6148 92 91 90
-0.7947 -1.3167 0.6146 92 91 90
-0.7649 -1.3167 0.6145 84 84 84
-0.7352 -1.3168 0.6146 89 88 87
-0.7054 -1.3166 0.6142 94 94 93
-0.6757 -1.3166 0.6141 94 94 93
-0.6476 -1.3169 0.6167 94 92 90
3.7988 -1.3054 0.6165 90 85 83
3.7993 -1.2749 0.6143 90 85 84
3.8007 -1.2547 0.6163 90 85 83
3.8235 -1.2392 0.6131 82 77 72
-1.1147 -1.2112 0.6098 105 98 90
-1.1052 -1.2207 0.6133 128 119 111
3.8254 -1.2151 0.6143 80 76 71
3.8254 -1.1853 0.6145 81 77 72
3.8255 -1.1544 0.6146 80 77 71
3.8255 -1.1249 0.6132 83 79 75
3.8256 -1.0948 0.6163 85 82 78
3.8257 -1.0640 0.6160 86 83 79
3.8259 -1.0355 0.6147 87 84 81
3.8259 -1.0045 0.6160 87 85 81
3.8259 -0.9747 0.6158 88 85 82
3.8261 -0.9450 0.6152 88 86 83
3.8263 -0.9144 0.6156 90 87 84
0.5638 -0.8706 0.6164 114 113 112
0.5854 -0.8706 0.6144 113 112 112
0.6165 -0.8707 0.6133 109 109 110
0.6457 -0.8707 0.6145 100 102 103
0.6758 -0.8709 0.6152 82 86 88
0.7072 -0.8709 0.6156 45 46 48
0.7295 -0.8709 0.6107 34 35 36
0.9229 -0.8716 0.6167 102 103 104
0.9456 -0.8714 0.6158 104 106 106
0.9758 -0.8716 0.6133 105 105 106
1.0053 -0.8716 0.6147 105 104 103
1.0234 -0.8716 0.6148 104 103 102
1.0991 -0.8801 0.6154 96 96 97
1.1216 -0.8721 0.6190 112 112 113
1.1617 -0.8719 0.6287 110 110 110
1.1861 -0.8724 0.6299 112 111 111
1.9796 -0.8735 0.6156 108 108 109
3.8262 -0.8845 0.6149 90 87 84
0.5951 -0.8414 0.6262 54 20 35
0.6161 -0.8451 0.6201 54 21 35
0.6402 -0.8477 0.6125 48 17 30
0.6730 -0.8561 0.6149 40 14 25
0.7049 -0.8589 0.6058 43 24 34
0.7335 -0.8667 0.6042 19 10 15
1.0132 -0.8409 0.6290 33 48 64
1.9794 -0.8550 0.6146 112 111 112
3.8264 -0.8547 0.6144 92 90 87
0.5644 -0.8173 0.6269 63 25 41
0.5861 -0.8231 0.6187 61 24 40
0.6114 -0.8260 0.6085 60 24 40
0.6352 -0.8256 0.6016 55 22 37
0.9211 -0.8177 0.6275 43 62 83
0.9445 -0.8193 0.6254 45 62 83
0.9766 -0.8219 0.6232 44 62 83
1.0049 -0.8243 0.6200 43 60 79
1.0342 -0.8243 0.6198 43 60 79
1.0641 -0.8232 0.6220 43 59 78
1.0944 -0.8207 0.6238 44 61 81
1.1247 -0.8177 0.6258 45 62 82
1.1490 -0.8145 0.6289 46 64 85
1.9793 -0.8253 0.6134 113 112 113
1.9800 -0.8264 0.6265 114 113 114
3.8263 -0.8250 0.6158 93 91 87
0.5621 -0.7939 0.6242 66 26 43
0.5853 -0.7945 0.6123 66 27 44
0.6055 -0.7973 0.6029 65 26 43
0.9204 -0.7945 0.6262 45 64 86
0.9447 -0.7941 0.6223 47 66 88
0.9751 -0.7942 0.6196 48 67 89
1.0051 -0.7951 0.6159 48 66 88
1.0350 -0.7947 0.6149 47 66 87
1.0643 -0.7942 0.6171 48 66 87
1.0939 -0.7941 0.6201 47 66 87
1.1237 -0.7944 0.6230 48 66 88
1.1514 -0.7934 0.6266 48 66 87
1.9794 -0.7953 0.6160 117 117 118
1.9800 -0.8008 0.6009 117 116 117
3.8264 -0.7952 0.6153 93 91 88
0.5588 -0.7650 0.6235 67 27 44
0.5850 -0.7647 0.6091 67 27 44
0.6033 -0.7644 0.6012 68 28 45
0.9183 -0.7641 0.6262 46 66 88
0.9443 -0.7656 0.6211 49 69 92
0.9752 -0.7652 0.6189 50 70 93
1.0056 -0.7648 0.6153 50 70 94
1.0355 -0.7651 0.6144 50 70 92
1.0656 -0.7648 0.6166 50 69 91
1.0948 -0.7658 0.6201 49 68 90
1.1239 -0.7654 0.6233 49 68 90
1.1516 -0.7641 0.6256 49 68 89
1.9795 -0.7642 0.6162 120 118 119
1.9802 -0.7657 0.6107 119 117 118
3.8264 -0.7646 0.6136 94 92 88
0.5594 -0.7364 0.6241 68 27 44
0.5849 -0.7348 0.6104 68 27 45
0.6067 -0.7328 0.6028 69 28 46
0.9176 -0.7367 0.6265 48 68 91
0.9442 -0.7351 0.6219 50 70 94
0.9746 -0.7359 0.6207 51 71 95
1.0053 -0.7351 0.6191 51 71 94
1.0355 -0.7350 0.6182 50 70 93
1.0648 -0.7353 0.6193 50 69 92
1.0943 -0.7354 0.6221 50 69 92
1.1243 -0.7358 0.6241 49 69 91
1.1518 -0.7352 0.6269 49 67 89
1.9796 -0.7394 0.6161 121 119 119
1.9815 -0.7307 0.6140 121 120 119
3.8266 -0.7336 0.6141 95 93 89
0.5625 -0.7087 0.6259 68 27 44
0.5851 -0.7052 0.6158 69 28 46
0.6110 -0.7035 0.6057 68 28 45
0.9225 -0.7141 0.6282 49 69 92
0.9453 -0.7071 0.6262 50 71 94
0.9746 -0.7071 0.6258 51 71 95
1.0048 -0.7066 0.6251 51 71 94
1.0346 -0.7063 0.6248 51 71 94
1.0646 -0.7058 0.6251 51 71 94
1.0943 -0.7066 0.6268 51 70 93
1.1241 -0.7082 0.6274 50 70 92
1.1466 -0.7117 0.6284 49 69 90
1.9877 -0.7153 0.6163 118 116 114
3.8268 -0.7050 0.6142 94 93 89
0.5662 -0.6806 0.6279 69 28 45
0.5857 -0.6762 0.6221 69 28 46
0.6143 -0.6748 0.6089 69 28 46
0.6346 -0.6668 0.6022 70 29 47
0.8853 -0.6730 0.6129 51 18 32
0.9538 -0.6899 0.6281 52 72 96
0.9727 -0.6899 0.6281 53 72 97
1.0060 -0.6873 0.6282 51 70 94
1.0347 -0.6871 0.6286 51 71 94
1.0620 -0.6852 0.6287 51 71 94
1.0831 -0.6845 0.6299 51 71 94
3.8267 -0.6761 0.6153 93 91 87
0.5897 -0.6493 0.6258 69 28 46
0.6154 -0.6451 0.6168 71 29 47
0.6417 -0.6428 0.6050 69 28 46
0.6602 -0.6317 0.6010 69 28 46
0.8828 -0.6408 0.6038 56 23 38
3.8270 -0.6465 0.6137 95 93 89
0.5956 -0.6249 0.6277 70 28 46
0.6188 -0.6171 0.6231 70 28 46
0.6448 -0.6145 0.6123 69 28 46
0.6690 -0.6103 0.6046 70 29 47
0.8868 -0.6149 0.6079 57 23 38
3.8270 -0.6163 0.6151 96 94 91
0.6242 -0.5902 0.6264 69 28 45
0.6464 -0.5863 0.6214 70 28 46
0.6747 -0.5842 0.6101 70 28 46
0.6985 -0.5787 0.6027 69 28 46
0.8896 -0.5847 0.6116 58 23 38
3.8271 -0.5849 0.6148 97 96 94
0.6506 -0.5615 0.6262 70 28 46
0.6763 -0.5562 0.6193 70 28 46
0.7048 -0.5540 0.6077 70 28 46
0.7280 -0.5478 0.6029 72 30 48
0.8904 -0.5530 0.6086 60 23 39
0.9042 -0.5541 0.6239 55 28 42
3.8272 -0.5547 0.6163 98 97 94
0.6579 -0.5399 0.6281 70 28 46
0.6795 -0.5311 0.6248 70 28 46
0.7061 -0.5261 0.6183 70 28 46
0.7346 -0.5240 0.6097 72 29 47
0.7644 -0.5222 0.6059 71 29 47
0.7935 -0.5204 0.6058 70 28 46
0.8249 -0.5189 0.6072 72 29 47
0.8556 -0.5187 0.6063 70 28 45
0.8839 -0.5228 0.6090 67 27 44
0.9080 -0.5231 0.6231 61 27 43
3.8271 -0.5248 0.6156 97 96 94
0.6881 -0.5072 0.6290 70 28 45
0.7081 -0.4995 0.6244 71 29 46
0.7358 -0.4988 0.6204 71 28 46
0.7655 -0.4962 0.6182 71 29 46
0.7950 -0.4951 0.6175 70 28 46
0.8245 -0.4965 0.6187 71 29 46
0.8550 -0.4990 0.6167 71 29 46
0.8854 -0.4960 0.6200 69 27 45
0.9089 -0.4953 0.6255 68 28 45
3.8271 -0.4950 0.6149 98 97 95
0.7393 -0.4758 0.6265 71 28 46
0.7657 -0.4715 0.6247 71 29 46
0.7939 -0.4710 0.6244 70 28 46
0.8236 -0.4748 0.6266 70 28 45
0.8547 -0.4768 0.6258 72 30 48
0.8854 -0.4722 0.6250 70 28 46
0.9045 -0.4736 0.6276 70 28 45
3.8272 -0.4652 0.6165 99 98 96
-1.1402 -0.4340 0.6022 139 126 110
-1.1399 -0.4447 0.6002 138 125 110
3.8274 -0.4343 0.6149 99 99 97
3.8275 -0.4036 0.6153 100 100 98
3.8274 -0.3738 0.6146 101 101 99
3.8277 -0.3440 0.6142 102 102 102
3.8274 -0.3153 0.6153 101 101 100
3.8277 -0.2855 0.6132 100 101 100
3.8277 -0.2548 0.6157 100 101 100
3.8281 -0.2251 0.6131 100 100 99
3.8280 -0.1952 0.6145 101 102 101
3.8280 -0.1650 0.6150 100 101 100
3.8281 -0.1348 0.6156 99 99 98
3.8282 -0.1059 0.6159 99 99 98
3.8282 -0.0752 0.6144 99 100 99
-0.6392 -0.0360 0.6105 203 177 146
-0.6101 -0.0370 0.6144 204 177 147
3.8282 -0.0444 0.6169 100 101 100
-0.6382 -0.0152 0.6127 211 182 148
-0.6116 -0.0149 0.6139 213 184 151
3.8284 -0.0146 0.6147 100 101 100
-1.1049 0.0207 0.6022 178 154 123
-0.6379 0.0153 0.6130 221 190 152
-0.6123 0.0149 0.6135 223 192 155
3.8283 0.0152 0.6153 100 101 99
-1.1052 0.0481 0.6017 175 151 119
-0.6379 0.0451 0.6126 232 198 156
-0.6118 0.0454 0.6138 233 200 159
3.8285 0.0452 0.6161 101 102 101
-1.1053 0.0748 0.6060 177 153 121
-0.6377 0.0748 0.6128 239 203 159
-0.6118 0.0757 0.6137 240 204 161
3.8286 0.0749 0.6138 100 101 100
-1.1055 0.1056 0.6108 179 155 122
-0.6376 0.1048 0.6124 240 204 160
-0.6116 0.1053 0.6139 242 206 162
3.8286 0.1058 0.6163 100 101 100
-1.1056 0.1347 0.6145 181 156 125
-0.6375 0.1347 0.6125 238 202 159
-0.6117 0.1354 0.6137 238 203 161
3.8289 0.1353 0.6137 99 100 100
-1.1058 0.1643 0.6152 178 154 123
-0.6374 0.1646 0.6126 231 198 157
-0.6111 0.1654 0.6141 231 198 158
3.8289 0.1654 0.6152 100 101 101
-1.1058 0.1946 0.6156 177 154 124
-0.6386 0.1897 0.6102 225 193 155
-0.6112 0.1916 0.6138 220 190 155
3.8290 0.1939 0.6137 100 101 101
-1.1060 0.2257 0.6152 173 151 122
3.8289 0.2240 0.6147 100 101 101
-1.1059 0.2560 0.6146 173 151 122
3.8291 0.2545 0.6152 101 102 102
-1.1061 0.2846 0.6148 191 164 127
3.8291 0.2845 0.6154 100 102 102
-1.1062 0.3148 0.6149 193 165 126
3.8292 0.3144 0.6168 101 102 102
-1.1063 0.3455 0.6149 186 159 123
3.8292 0.3446 0.6140 100 102 102
-1.1064 0.3755 0.6141 179 154 121
3.8294 0.3755 0.6150 99 101 100
-1.1066 0.4052 0.6156 177 153 122
3.8293 0.4048 0.6158 99 100 99
-1.1066 0.4338 0.6158 171 149 120
3.8294 0.4348 0.6152 98 99 98
3.8295 0.4657 0.6166 97 98 98
3.8296 0.4951 0.6147 97 99 98
3.8296 0.5253 0.6158 97 98 98
3.8298 0.5538 0.6144 97 98 97
3.8297 0.5851 0.6153 97 98 98
3.8298 0.6145 0.6134 97 99 98
3.8300 0.6455 0.6148 98 99 99
3.8300 0.6754 0.6142 97 98 98
3.8302 0.7041 0.6141 96 97 97
3.8304 0.7343 0.6149 96 97 97
3.8305 0.7638 0.6127 96 97 96
3.8305 0.7966 0.6150 95 97 96
3.8306 0.8261 0.6148 96 97 97
3.8306 0.8557 0.6164 96 97 97
3.8306 0.8857 0.6158 95 97 97
3.8307 0.9144 0.6156 94 95 94
3.8307 0.9430 0.6154 93 94 92
3.8310 0.9731 0.6150 92 93 92
3.8307 1.0072 0.6153 93 94 92
3.8310 1.0372 0.6149 93 94 93
3.8311 1.0659 0.6147 93 93 92
2.4116 1.1099 0.6040 113 113 117
2.4345 1.1099 0.6051 113 113 116
2.5449 1.1098 0.6167 110 111 114
2.5651 1.1098 0.6112 110 111 114
2.5974 1.1098 0.6114 110 110 114
2.6215 1.1097 0.6151 110 110 114
2.6581 1.1098 0.6114 110 110 114
2.6841 1.1098 0.6168 109 110 113
2.7141 1.1098 0.6149 109 110 113
3.8312 1.0946 0.6146 84 84 82
-1.1169 1.1240 0.6186 124 113 99
-1.1016 1.1355 0.6097 150 137 125
-0.5752 1.1235 0.6026 156 145 134
-0.5533 1.1237 0.6099 156 144 134
-0.5239 1.1236 0.6142 155 144 134
-0.4950 1.1235 0.6150 155 144 134
-0.4645 1.1234 0.6146 154 144 135
-0.4343 1.1233 0.6155 154 144 135
-0.4044 1.1232 0.6150 154 143 135
-0.3749 1.1231 0.6147 153 143 135
-0.3458 1.1230 0.6154 152 143 135
-0.3247 1.1231 0.6211 152 143 135
2.1872 1.1113 0.6192 116 117 121
2.2059 1.1112 0.6139 116 117 121
2.2365 1.1113 0.6157 115 116 120
2.2650 1.1110 0.6154 115 116 120
2.2938 1.1110 0.6172 115 115 119
2.3257 1.1110 0.6147 114 114 118
2.3544 1.1108 0.6134 113 114 118
2.3848 1.1107 0.6172 113 113 117
2.4145 1.1107 0.6171 112 113 116
2.4480 1.1107 0.6137 112 112 115
2.4768 1.1106 0.6160 111 112 115
2.5062 1.1106 0.6143 111 111 114
2.5343 1.1104 0.6189 111 111 114
2.5648 1.1106 0.6168 110 111 114
2.5923 1.1105 0.6159 110 110 114
2.6274 1.1104 0.6165 110 110 114
2.6520 1.1103 0.6192 110 110 114
2.6846 1.1105 0.6150 109 110 114
2.7039 1.1101 0.6181 109 110 113
3.7979 -1.3820 0.6438 88 83 81
-0.6094 -1.3645 0.6405 50 36 30
-0.5848 -1.3721 0.6444 75 47 32
-0.5553 -1.3721 0.6449 88 56 41
-0.5250 -1.3721 0.6440 89 57 42
-0.4953 -1.3719 0.6451 90 57 41
-0.4653 -1.3721 0.6445 87 56 41
-0.4352 -1.3720 0.6448 89 58 42
-0.4052 -1.3720 0.6450 85 53 41
-0.3752 -1.3719 0.6445 86 55 42
-0.3447 -1.3717 0.6446 87 56 42
-0.3151 -1.3718 0.6448 87 56 42
-0.2849 -1.3719 0.6447 84 55 41
-0.2547 -1.3718 0.6445 82 53 41
-0.2246 -1.3717 0.6451 82 54 41
-0.1942 -1.3717 0.6444 78 51 39
-0.1643 -1.3712 0.6454 77 50 37
-0.1386 -1.3717 0.6448 74 47 36
3.7983 -1.3648 0.6457 89 84 82
-0.7898 -1.3282 0.6378 95 94 92
-0.7640 -1.3279 0.6420 90 88 87
-0.7350 -1.3278 0.6442 88 87 89
-0.7050 -1.3277 0.6454 95 93 91
-0.6751 -1.3276 0.6450 96 94 92
-0.6451 -1.3275 0.6449 96 94 92
-0.6148 -1.3329 0.6440 81 74 70
3.7983 -1.3362 0.6458 90 85 83
-0.9122 -1.3165 0.6461 90 89 88
-0.8852 -1.3164 0.6472 91 90 89
-0.8568 -1.3167 0.6471 91 90 90
-0.8265 -1.3163 0.6461 91 91 90
-0.7966 -1.3166 0.6467 90 88 87
-0.7665 -1.3165 0.6464 83 82 83
-0.7364 -1.3164 0.6463 92 91 91
-0.7063 -1.3164 0.6462 93 93 93
-0.6762 -1.3163 0.6460 94 94 94
-0.6463 -1.3167 0.6466 94 94 94
-0.6248 -1.3176 0.6443 90 88 84
3.7984 -1.3053 0.6462 90 85 84
3.7984 -1.2745 0.6445 90 86 84
3.8007 -1.2535 0.6459 91 85 83
3.8238 -1.2398 0.6427 81 76 71
3.8252 -1.2156 0.6442 81 76 71
3.8250 -1.1845 0.6443 81 77 72
3.8251 -1.1546 0.6442 80 76 71
3.8251 -1.1261 0.6454 82 78 73
3.8251 -1.0944 0.6470 86 82 79
3.8251 -1.0635 0.6454 86 83 80
3.8253 -1.0347 0.6457 87 85 81
3.8255 -1.0060 0.6456 87 84 80
3.8254 -0.9749 0.6457 88 86 82
3.8254 -0.9449 0.6455 89 87 84
3.8256 -0.9150 0.6448 90 88 85
0.5601 -0.8704 0.6447 108 106 105
0.5843 -0.8706 0.6449 101 101 102
0.6154 -0.8706 0.6431 83 85 87
0.6443 -0.8708 0.6445 61 64 67
0.6731 -0.8707 0.6455 35 38 41
0.6979 -0.8708 0.6377 19 19 21
0.9182 -0.8713 0.6437 91 93 97
0.9434 -0.8716 0.6464 96 99 102
0.9758 -0.8715 0.6450 97 99 101
1.0060 -0.8715 0.6446 97 96 97
1.0328 -0.8717 0.6456 97 97 98
1.0537 -0.8713 0.6527 91 90 90
1.1001 -0.8787 0.6443 95 96 99
1.1252 -0.8720 0.6463 105 107 109
1.1559 -0.8717 0.6448 106 106 107
1.1868 -0.8721 0.6461 99 99 100
1.2171 -0.8721 0.6478 91 89 89
1.2453 -0.8719 0.6469 101 99 99
1.2703 -0.8725 0.6513 117 114 111
1.9785 -0.8741 0.6484 105 105 105
3.8257 -0.8842 0.6452 91 89 86
0.5578 -0.8469 0.6511 60 30 43
0.5842 -0.8493 0.6448 53 24 37
0.6162 -0.8558 0.6448 40 14 26
0.6451 -0.8593 0.6385 35 12 23
0.6679 -0.8641 0.6406 32 19 28
0.7034 -0.8693 0.6416 24 12 18
0.9177 -0.8493 0.6420 32 45 62
0.9441 -0.8477 0.6459 32 46 63
0.9766 -0.8474 0.6466 32 46 62
1.0024 -0.8483 0.6440 32 46 62
1.0355 -0.8468 0.6433 33 46 62
1.0655 -0.8463 0.6460 32 45 61
1.0954 -0.8471 0.6474 37 50 65
1.1252 -0.8469 0.6479 46 59 74
1.1546 -0.8487 0.6494 48 61 75
1.1848 -0.8513 0.6498 47 62 79
1.2141 -0.8543 0.6529 49 63 78
1.2396 -0.8548 0.6584 56 70 86
1.9788 -0.8549 0.6443 111 110 111
3.8258 -0.8542 0.6447 92 90 87
0.5363 -0.8134 0.6536 65 27 43
0.5537 -0.8249 0.6416 60 23 39
0.5756 -0.8281 0.6366 55 21 36
0.9144 -0.8252 0.6345 39 54 73
0.9449 -0.8279 0.6358 38 54 72
0.9728 -0.8257 0.6344 37 53 71
1.0063 -0.8172 0.6333 35 49 65
1.0375 -0.8166 0.6316 37 53 70
1.0691 -0.8216 0.6334 36 51 67
1.0964 -0.8289 0.6346 37 53 70
1.1248 -0.8273 0.6368 39 56 75
1.1563 -0.8254 0.6390 43 60 79
1.1851 -0.8252 0.6452 44 62 83
1.2132 -0.8249 0.6541 46 64 85
1.2349 -0.8243 0.6588 47 65 85
1.9789 -0.8250 0.6449 114 113 114
3.8259 -0.8254 0.6447 93 91 88
0.5341 -0.7925 0.6481 63 24 40
0.5475 -0.7959 0.6364 63 25 41
0.8992 -0.7911 0.6361 45 48 66
0.9090 -0.7952 0.6331 42 57 78
0.9446 -0.8034 0.6329 42 59 79
0.9669 -0.8048 0.6318 43 60 80
1.0742 -0.8046 0.6307 41 58 77
1.0984 -0.8034 0.6324 42 59 78
1.1284 -0.7953 0.6328 45 63 83
1.1574 -0.7966 0.6355 46 64 85
1.1843 -0.7959 0.6427 47 64 85
1.2131 -0.7941 0.6533 47 65 86
1.2341 -0.7940 0.6584 47 64 85
1.9789 -0.7943 0.6451 118 117 117
3.8259 -0.7954 0.6449 93 91 88
0.5322 -0.7638 0.6468 64 25 40
0.5440 -0.7655 0.6344 64 25 41
0.8971 -0.7634 0.6346 44 52 71
0.9069 -0.7672 0.6319 43 61 83
1.1369 -0.7745 0.6301 47 66 87
1.1577 -0.7654 0.6328 48 66 88
1.1839 -0.7652 0.6400 47 65 85
1.2135 -0.7646 0.6503 47 65 85
1.2333 -0.7654 0.6573 46 63 82
1.9790 -0.7644 0.6447 119 118 118
3.8259 -0.7643 0.6449 93 91 88
0.5296 -0.7347 0.6479 67 26 42
0.5453 -0.7321 0.6341 67 26 42
0.8965 -0.7331 0.6336 44 57 77
0.9057 -0.7303 0.6313 46 65 87
1.1610 -0.7316 0.6333 48 66 88
1.1848 -0.7353 0.6381 48 66 87
1.2140 -0.7343 0.6489 46 64 84
1.2330 -0.7460 0.6583 44 60 79
1.9791 -0.7401 0.6442 121 120 119
1.9820 -0.7241 0.6434 121 119 119
3.8262 -0.7346 0.6436 95 93 90
0.5315 -0.7066 0.6516 67 26 43
0.5500 -0.7023 0.6380 67 27 43
0.8967 -0.7053 0.6369 40 49 67
0.9133 -0.7021 0.6336 47 66 89
0.9397 -0.6946 0.6309 50 69 93
0.9728 -0.6927 0.6308 52 72 95
0.9971 -0.6924 0.6307 52 72 96
1.0369 -0.6910 0.6304 52 72 94
1.0661 -0.6906 0.6303 52 72 95
1.0952 -0.6933 0.6309 52 72 95
1.1267 -0.6942 0.6315 51 70 93
1.1574 -0.7027 0.6337 49 68 90
1.1853 -0.7046 0.6417 49 67 88
1.2113 -0.7048 0.6527 47 65 85
1.9869 -0.7153 0.6458 119 117 116
3.8262 -0.7046 0.6430 96 94 91
0.5352 -0.6764 0.6562 68 27 43
0.5543 -0.6744 0.6426 68 27 44
0.5740 -0.6654 0.6325 70 28 45
0.8956 -0.6758 0.6427 33 35 49
0.9148 -0.6747 0.6394 48 67 90
0.9454 -0.6743 0.6350 51 71 94
0.9760 -0.6746 0.6348 51 71 94
1.0055 -0.6738 0.6348 52 71 95
1.0354 -0.6735 0.6354 51 71 94
1.0656 -0.6740 0.6357 52 71 94
1.0954 -0.6744 0.6365 51 71 94
1.1248 -0.6747 0.6380 51 71 94
1.1546 -0.6748 0.6420 51 69 92
1.1849 -0.6751 0.6498 49 67 89
1.2070 -0.6785 0.6574 48 66 86
3.8263 -0.6749 0.6457 95 93 90
0.5364 -0.6487 0.6580 68 27 43
0.5565 -0.6455 0.6476 68 27 44
0.5810 -0.6416 0.6355 70 28 46
0.8955 -0.6498 0.6474 41 43 60
0.9145 -0.6452 0.6477 48 67 90
0.9441 -0.6451 0.6439 51 71 94
0.9742 -0.6450 0.6432 51 71 94
1.0043 -0.6454 0.6437 51 71 94
1.0343 -0.6450 0.6446 51 71 94
1.0644 -0.6451 0.6450 51 71 93
1.0945 -0.6452 0.6459 51 71 94
1.1249 -0.6454 0.6467 51 71 94
1.1552 -0.6456 0.6492 50 69 92
1.1828 -0.6448 0.6551 49 68 89
1.2028 -0.6552 0.6592 48 66 87
3.8263 -0.6445 0.6451 96 95 92
0.5595 -0.6189 0.6535 69 27 44
0.5846 -0.6144 0.6429 69 28 46
0.6069 -0.6119 0.6335 70 29 47
0.8992 -0.6237 0.6543 43 61 82
0.9172 -0.6168 0.6554 47 65 87
0.9452 -0.6148 0.6538 50 70 93
0.9754 -0.6156 0.6527 51 71 93
1.0054 -0.6162 0.6532 51 71 93
1.0351 -0.6150 0.6540 51 70 93
1.0651 -0.6150 0.6546 51 71 93
1.0951 -0.6158 0.6545 51 71 93
1.1246 -0.6163 0.6543 51 71 94
1.1531 -0.6172 0.6552 51 71 94
1.1770 -0.6213 0.6581 49 69 91
3.8265 -0.6154 0.6463 96 94 92
0.5646 -0.5913 0.6560 69 28 45
0.5868 -0.5873 0.6511 69 28 45
0.6133 -0.5839 0.6394 70 28 45
0.6347 -0.5760 0.6328 70 28 45
0.9205 -0.5931 0.6597 50 70 94
0.9461 -0.5921 0.6588 51 70 93
0.9719 -0.5939 0.6581 51 71 93
1.0028 -0.5945 0.6578 51 70 93
1.0323 -0.5918 0.6588 51 71 93
1.0638 -0.5945 0.6588 52 72 94
1.0940 -0.5945 0.6587 52 71 94
1.1246 -0.5947 0.6595 52 72 95
1.1428 -0.5947 0.6597 53 73 96
3.8264 -0.5866 0.6463 96 95 92
0.5911 -0.5612 0.6557 69 27 45
0.6160 -0.5562 0.6482 70 28 45
0.6425 -0.5520 0.6373 70 28 45
0.6665 -0.5444 0.6325 70 28 45
3.8264 -0.5566 0.6456 97 96 94
0.5983 -0.5396 0.6581 74 31 49
0.6199 -0.5299 0.6540 70 28 45
0.6460 -0.5255 0.6463 70 28 45
0.6735 -0.5227 0.6379 70 28 45
0.6961 -0.5154 0.6331 70 28 45
3.8265 -0.5257 0.6460 98 97 95
0.6262 -0.5070 0.6564 71 28 45
0.6489 -0.4991 0.6533 72 29 46
0.6763 -0.4974 0.6478 70 28 45
0.7040 -0.4933 0.6413 71 28 45
0.7318 -0.4880 0.6355 72 29 46
0.7567 -0.4829 0.6324 72 29 46
0.7804 -0.4801 0.6301 72 29 46
0.8286 -0.4836 0.6313 71 29 47
0.8551 -0.4866 0.6332 72 29 48
0.8750 -0.4841 0.6327 70 28 46
0.9197 -0.4886 0.6324 64 31 49
3.8266 -0.4946 0.6444 98 97 95
0.6588 -0.4790 0.6580 69 27 44
0.6783 -0.4715 0.6539 71 28 44
0.7066 -0.4692 0.6500 71 27 44
0.7342 -0.4674 0.6462 71 27 44
0.7657 -0.4664 0.6422 71 27 43
0.7959 -0.4649 0.6401 70 27 43
0.8254 -0.4641 0.6421 70 28 45
0.8554 -0.4635 0.6413 71 28 45
0.8854 -0.4633 0.6394 70 28 45
0.9120 -0.4642 0.6368 69 30 47
3.8268 -0.4646 0.6460 98 97 95
0.7146 -0.4472 0.6576 72 28 44
0.7361 -0.4450 0.6531 71 27 43
0.7668 -0.4424 0.6498 70 26 41
0.7948 -0.4411 0.6471 70 26 41
0.8249 -0.4386 0.6503 69 27 43
0.8569 -0.4382 0.6493 70 27 43
0.8853 -0.4388 0.6485 69 28 43
0.9078 -0.4420 0.6465 74 39 53
3.8266 -0.4346 0.6453 99 99 97
3.8267 -0.4046 0.6447 98 98 96
3.8268 -0.3748 0.6447 99 99 98
3.8269 -0.3450 0.6448 102 102 101
3.8271 -0.3150 0.6443 100 101 99
3.8273 -0.2850 0.6437 100 100 99
3.8274 -0.2549 0.6453 100 100 99
3.8274 -0.2250 0.6425 100 100 99
3.8275 -0.1953 0.6453 101 101 100
3.8277 -0.1654 0.6427 100 101 100
3.8274 -0.1345 0.6463 98 99 97
3.8277 -0.1045 0.6458 97 98 96
3.8276 -0.0745 0.6452 98 99 97
-0.6319 -0.0326 0.6349 201 174 141
-0.6195 -0.0313 0.6453 204 175 142
-0.5980 -0.0340 0.6447 205 176 143
3.8277 -0.0456 0.6465 100 101 99
-0.6314 -0.0147 0.6377 210 180 145
-0.6214 -0.0145 0.6467 211 181 145
-0.5976 -0.0147 0.6466 211 181 145
3.8277 -0.0157 0.6443 99 100 98
-0.6312 0.0156 0.6385 221 189 149
-0.6206 0.0140 0.6456 219 187 148
-0.5978 0.0157 0.6462 222 189 149
3.8279 0.0154 0.6468 99 100 99
-0.6312 0.0443 0.6373 232 196 153
-0.6169 0.0453 0.6425 231 196 152
-0.5975 0.0451 0.6477 232 197 153
3.8281 0.0452 0.6442 100 100 99
-0.6312 0.0741 0.6374 238 202 155
-0.6193 0.0753 0.6446 238 201 155
-0.5975 0.0743 0.6482 238 202 155
3.8281 0.0754 0.6456 99 100 99
-0.6311 0.1052 0.6362 240 203 156
-0.6190 0.1055 0.6439 240 203 156
-0.5978 0.1051 0.6469 240 203 156
3.8282 0.1041 0.6441 100 101 101
-1.1062 0.1459 0.6331 182 157 125
-0.6312 0.1354 0.6355 237 201 155
-0.6196 0.1354 0.6440 237 200 154
-0.5977 0.1345 0.6479 237 200 154
3.8280 0.1343 0.6451 100 101 100
-1.1055 0.1668 0.6322 181 156 124
-0.6310 0.1647 0.6353 230 195 151
-0.6174 0.1645 0.6426 230 195 151
-0.5978 0.1654 0.6480 230 195 151
3.8284 0.1652 0.6445 100 101 100
-1.1062 0.2019 0.6390 177 154 123
-0.6311 0.1840 0.6335 223 189 148
-0.6147 0.1865 0.6395 224 191 150
-0.5979 0.1888 0.6466 219 187 148
3.8284 0.1961 0.6437 100 101 100
-1.1063 0.2267 0.6425 174 151 121
3.8284 0.2251 0.6441 98 100 99
-1.1064 0.2562 0.6432 175 152 122
3.8286 0.2541 0.6450 99 100 99
-1.1065 0.2850 0.6449 195 166 128
3.8284 0.2860 0.6460 99 100 100
-1.1066 0.3147 0.6453 195 166 127
3.8286 0.3160 0.6430 99 101 101
-1.1068 0.3448 0.6445 190 162 126
3.8286 0.3452 0.6467 98 100 99
-1.1068 0.3754 0.6445 184 158 124
3.8288 0.3749 0.6448 99 101 100
-1.1069 0.4051 0.6450 183 158 127
3.8287 0.4060 0.6461 99 100 100
-1.1072 0.4354 0.6455 175 152 123
3.8289 0.4361 0.6456 99 100 99
3.8290 0.4650 0.6455 98 99 98
3.8290 0.4938 0.6453 97 99 98
3.8291 0.5240 0.6447 97 98 97
3.8292 0.5551 0.6461 98 99 98
3.8294 0.5847 0.6443 96 97 96
3.8294 0.6163 0.6452 96 97 96
3.8296 0.6449 0.6438 96 97 96
3.8295 0.6752 0.6448 96 97 96
3.8296 0.7048 0.6429 94 96 95
3.8297 0.7360 0.6443 95 96 96
3.8299 0.7662 0.6438 95 97 96
3.8299 0.7961 0.6458 95 97 96
3.8300 0.8253 0.6462 96 98 97
3.8299 0.8538 0.6449 95 97 97
3.8299 0.8829 0.6457 95 97 96
3.8301 0.9131 0.6453 94 96 95
3.8300 0.9456 0.6469 95 96 95
3.8302 0.9749 0.6441 94 95 93
3.8304 1.0066 0.6451 94 94 93
3.8304 1.0354 0.6449 92 93 91
3.8304 1.0655 0.6443 91 91 88
2.4726 1.1099 0.6552 111 111 114
2.5520 1.1098 0.6563 110 110 113
2.6015 1.1099 0.6377 110 110 113
2.6283 1.1098 0.6440 109 110 113
2.6516 1.1097 0.6458 109 109 113
2.6859 1.1096 0.6502 109 109 113
2.7121 1.1092 0.6308 109 110 113
3.8306 1.0955 0.6446 83 82 79
-1.1042 1.1353 0.6320 150 139 128
-0.5228 1.1238 0.6403 156 144 134
-0.4943 1.1237 0.6440 155 144 134
-0.4645 1.1235 0.6445 155 144 134
-0.4349 1.1235 0.6447 154 144 134
-0.4054 1.1234 0.6445 154 143 135
-0.3753 1.1232 0.6441 153 143 135
-0.3453 1.1231 0.6456 152 143 135
-0.3177 1.1231 0.6459 152 142 135
-0.2999 1.1233 0.6569 152 142 135
2.1815 1.1112 0.6454 116 117 121
2.2044 1.1110 0.6442 115 116 121
2.2341 1.1110 0.6454 115 116 120
2.2644 1.1112 0.6448 115 116 120
2.2959 1.1111 0.6448 114 115 119
2.3241 1.1107 0.6440 113 114 118
2.3546 1.1110 0.6456 113 113 117
2.3855 1.1106 0.6460 112 113 116
2.4152 1.1106 0.6427 112 112 116
2.4459 1.1106 0.6458 111 112 115
2.4769 1.1105 0.6445 111 111 114
2.5059 1.1105 0.6458 111 111 114
2.5357 1.1104 0.6453 110 110 113
2.5667 1.1105 0.6455 110 110 113
2.5924 1.1105 0.6463 110 110 113
2.6229 1.1104 0.6444 109 110 113
2.6574 1.1104 0.6484 109 110 113
2.6839 1.1104 0.6388 109 110 113
2.7010 1.1104 0.6318 109 110 113
3.7968 -1.3823 0.6727 88 82 80
-0.6071 -1.3605 0.6749 41 33 30
-0.5844 -1.3710 0.6746 63 42 32
-0.5551 -1.3711 0.6750 87 56 41
-0.5252 -1.3711 0.6744 89 58 42
-0.4949 -1.3713 0.6753 89 57 42
-0.4649 -1.3710 0.6749 87 56 42
-0.4349 -1.3710 0.6751 89 57 42
-0.4047 -1.3709 0.6752 84 53 42
-0.3750 -1.3710 0.6741 86 56 43
-0.3457 -1.3711 0.6751 87 56 42
-0.3151 -1.3709 0.6749 88 57 43
-0.2851 -1.3710 0.6750 83 55 42
-0.2552 -1.3709 0.6748 81 53 41
-0.2250 -1.3708 0.6746 80 53 40
-0.1947 -1.3708 0.6746 77 50 38
-0.1651 -1.3708 0.6754 75 49 37
-0.1392 -1.3715 0.6745 73 47 35
3.7977 -1.3651 0.6757 89 84 82
-0.7819 -1.3277 0.6827 94 93 92
-0.7616 -1.3276 0.6787 87 88 89
-0.7347 -1.3277 0.6731 88 86 86
-0.7056 -1.3276 0.6753 95 93 92
-0.6750 -1.3275 0.6748 96 94 92
-0.6454 -1.3273 0.6751 96 94 92
-0.6134 -1.3290 0.6747 90 85 83
-0.5983 -1.3328 0.6803 78 68 63
3.7976 -1.3339 0.6758 90 85 83
-0.9114 -1.3165 0.6723 90 89 87
-0.8856 -1.3162 0.6726 90 90 89
-0.8553 -1.3163 0.6728 91 90 89
-0.8250 -1.3163 0.6728 90 90 89
-0.7895 -1.3109 0.6787 81 81 81
-0.7672 -1.3130 0.6769 89 90 93
-0.7340 -1.3163 0.6725 93 92 92
-0.7050 -1.3160 0.6726 93 93 93
-0.6764 -1.3164 0.6726 93 93 93
-0.6460 -1.3163 0.6724 94 94 94
-0.6220 -1.3169 0.6735 93 93 93
3.7980 -1.3052 0.6758 90 86 84
-0.7832 -1.2768 0.6865 80 80 82
-0.7745 -1.2775 0.6881 94 97 102
3.7981 -1.2764 0.6762 91 86 84
-0.7839 -1.2485 0.6863 78 70 69
-0.7759 -1.2439 0.6870 87 80 82
3.7985 -1.2584 0.6719 91 86 84
3.8232 -1.2392 0.6756 82 78 73
-0.7888 -1.2147 0.6875 78 67 63
-0.7771 -1.2158 0.6866 81 67 65
3.8245 -1.2148 0.6749 80 76 71
-0.7887 -1.1856 0.6873 84 76 73
-0.7771 -1.1852 0.6864 80 66 64
3.8243 -1.1848 0.6733 81 77 72
-0.7892 -1.1565 0.6874 88 82 80
-0.7770 -1.1546 0.6860 80 67 65
3.8246 -1.1546 0.6743 81 77 71
-0.7895 -1.1245 0.6873 90 84 83
-0.7769 -1.1239 0.6858 80 67 65
3.8246 -1.1253 0.6754 82 79 74
-0.7894 -1.0939 0.6871 90 86 84
-0.7761 -1.0930 0.6861 78 66 65
3.8248 -1.0961 0.6757 85 81 77
-0.7894 -1.0634 0.6871 88 84 81
-0.7761 -1.0635 0.6860 79 68 66
3.8247 -1.0654 0.6749 85 82 78
-0.7897 -1.0341 0.6868 86 82 78
-0.7758 -1.0337 0.6861 78 68 66
3.8247 -1.0341 0.6754 86 83 80
-0.7893 -1.0051 0.6864 86 82 78
-0.7751 -1.0057 0.6864 77 68 67
3.8247 -1.0051 0.6757 86 84 79
-0.7889 -0.9762 0.6863 86 82 79
-0.7749 -0.9757 0.6862 80 72 70
3.8251 -0.9762 0.6757 88 86 82
-0.7892 -0.9470 0.6860 87 83 79
-0.7754 -0.9465 0.6860 81 73 72
3.8249 -0.9449 0.6758 89 87 84
-0.7891 -0.9164 0.6859 87 83 80
-0.7743 -0.9164 0.6858 82 76 74
3.8251 -0.9148 0.6757 90 88 86
-0.7891 -0.8858 0.6856 88 84 80
-0.7752 -0.8852 0.6851 82 76 74
0.5626 -0.8706 0.6737 72 71 69
0.5841 -0.8705 0.6762 45 44 44
0.6133 -0.8706 0.6731 33 36 38
0.6426 -0.8706 0.6703 15 14 16
0.9463 -0.8715 0.6706 82 85 88
0.9749 -0.8716 0.6750 76 78 81
1.0031 -0.8716 0.6738 71 70 71
1.0326 -0.8717 0.6745 79 79 80
1.0996 -0.8785 0.6737 82 84 87
1.1229 -0.8719 0.6739 75 77 80
1.1522 -0.8720 0.6756 65 65 66
1.1840 -0.8713 0.6671 64 64 65
1.2685 -0.8723 0.6668 112 109 108
1.9778 -0.8747 0.6759 103 102 100
3.8252 -0.8858 0.6759 91 89 86
-0.7890 -0.8552 0.6852 88 84 81
-0.7707 -0.8551 0.6876 83 77 75
0.4931 -0.8487 0.6805 111 109 106
0.5265 -0.8483 0.6755 90 87 87
0.5601 -0.8585 0.6730 40 23 30
0.5835 -0.8597 0.6663 39 18 27
0.6138 -0.8633 0.6701 28 10 19
0.6414 -0.8689 0.6771 20 8 13
0.9229 -0.8646 0.6647 21 22 26
0.9535 -0.8590 0.6679 21 30 41
0.9707 -0.8564 0.6647 25 36 49
1.0040 -0.8591 0.6663 26 39 52
1.0341 -0.8573 0.6652 30 41 54
1.0561 -0.8550 0.6634 30 42 56
1.0998 -0.8531 0.6694 64 71 80
1.1227 -0.8560 0.6685 42 52 64
1.1586 -0.8557 0.6682 35 46 59
1.1850 -0.8566 0.6660 33 37 41
1.2131 -0.8478 0.6612 28 37 49
1.2507 -0.8512 0.6637 49 63 79
1.2643 -0.8566 0.6679 55 67 82
1.9784 -0.8549 0.6755 111 111 111
3.8253 -0.8548 0.6744 92 91 88
-0.7890 -0.8247 0.6853 89 85 82
-0.7708 -0.8256 0.6876 83 78 76
0.5036 -0.8247 0.6866 61 23 39
0.5226 -0.8253 0.6723 61 24 39
0.5442 -0.8308 0.6608 52 19 33
0.5703 -0.8398 0.6708 34 12 21
1.1386 -0.8325 0.6652 32 46 63
1.1461 -0.8314 0.6612 32 46 62
1.1748 -0.8385 0.6648 29 42 58
1.2251 -0.8256 0.6620 47 65 87
1.2477 -0.8252 0.6653 47 65 86
1.2617 -0.8262 0.6683 58 72 89
1.9782 -0.8249 0.6747 113 113 113
3.8251 -0.8234 0.6746 94 92 90
-0.7889 -0.7940 0.6849 90 86 82
-0.7701 -0.7952 0.6877 84 79 77
0.5030 -0.7949 0.6847 63 24 40
0.5163 -0.7957 0.6694 63 25 41
1.2232 -0.7968 0.6624 47 65 85
1.2456 -0.7964 0.6669 49 66 86
1.9784 -0.7958 0.6750 117 116 116
3.8256 -0.7945 0.6749 94 93 90
-0.7881 -0.7707 0.6843 89 86 82
-0.7698 -0.7649 0.6877 84 80 78
0.5000 -0.7643 0.6829 63 24 40
0.5161 -0.7659 0.6671 62 24 39
1.2278 -0.7674 0.6634 46 64 84
1.2428 -0.7682 0.6673 52 67 85
1.9784 -0.7644 0.6744 118 118 117
3.8254 -0.7655 0.6748 95 93 90
-0.7870 -0.7250 0.6835 91 87 84
-0.7695 -0.7332 0.6879 83 79 77
0.4991 -0.7349 0.6769 64 24 40
0.5164 -0.7300 0.6627 66 26 42
1.2284 -0.7348 0.6623 46 62 81
1.2368 -0.7362 0.6654 45 60 76
1.9788 -0.7376 0.6747 120 119 118
1.9816 -0.7240 0.6743 122 120 119
3.8256 -0.7353 0.6742 95 94 91
-0.7891 -0.7037 0.6846 93 89 86
-0.7696 -0.7046 0.6875 86 81 80
0.5025 -0.7038 0.6779 65 25 40
0.5185 -0.7028 0.6666 66 26 42
1.2262 -0.7028 0.6636 45 60 78
1.2337 -0.7022 0.6723 47 60 76
1.9876 -0.7148 0.6742 117 116 114
3.8255 -0.7043 0.6746 95 93 90
-0.7883 -0.6764 0.6839 93 89 86
-0.7695 -0.6758 0.6873 87 82 81
0.5053 -0.6758 0.6828 66 26 41
0.5210 -0.6746 0.6695 67 26 42
1.2172 -0.6713 0.6644 46 62 82
1.2322 -0.6764 0.6776 45 59 76
3.8257 -0.6742 0.6738 95 94 91
-0.7886 -0.6472 0.6837 95 91 87
-0.7698 -0.6464 0.6870 88 84 82
0.5056 -0.6490 0.6865 66 25 40
0.5238 -0.6451 0.6741 68 27 43
0.5431 -0.6379 0.6622 67 26 43
1.1963 -0.6399 0.6621 48 66 87
1.2140 -0.6450 0.6680 46 63 83
1.2322 -0.6453 0.6829 47 61 76
3.8259 -0.6456 0.6749 96 94 91
-0.7885 -0.6166 0.6834 96 92 88
-0.7693 -0.6154 0.6870 89 85 84
0.5068 -0.6247 0.6884 68 27 43
0.5286 -0.6163 0.6786 69 27 43
0.5503 -0.6115 0.6671 69 28 44
0.9139 -0.6039 0.6614 45 60 81
0.9921 -0.6001 0.6600 51 71 93
1.0328 -0.6003 0.6604 51 71 93
1.0742 -0.6005 0.6603 53 72 95
1.0959 -0.6017 0.6606 51 71 93
1.1270 -0.6034 0.6612 51 71 93
1.1579 -0.6053 0.6631 52 72 95
1.1874 -0.6117 0.6658 50 69 90
1.2112 -0.6154 0.6745 47 64 83
3.8258 -0.6150 0.6741 95 94 91
-0.7884 -0.5861 0.6832 97 92 88
-0.7696 -0.5847 0.6869 92 87 85
0.5308 -0.5908 0.6841 68 27 43
0.5549 -0.5848 0.6737 69 27 44
0.5771 -0.5778 0.6638 70 28 45
0.9182 -0.5843 0.6655 48 65 87
0.9437 -0.5822 0.6637 50 70 93
0.9754 -0.5811 0.6638 51 70 93
1.0049 -0.5827 0.6646 51 70 93
1.0352 -0.5832 0.6654 51 70 92
1.0649 -0.5836 0.6646 51 71 93
1.0949 -0.5834 0.6650 51 70 92
1.1250 -0.5840 0.6668 51 71 93
1.1550 -0.5843 0.6701 52 71 94
1.1847 -0.5853 0.6770 50 68 90
1.2089 -0.5893 0.6840 48 64 83
3.8258 -0.5845 0.6758 96 95 93
-0.7884 -0.5556 0.6831 99 94 89
-0.7695 -0.5554 0.6867 94 89 87
0.5372 -0.5664 0.6873 70 27 44
0.5600 -0.5574 0.6805 68 27 43
0.5830 -0.5529 0.6689 70 28 45
0.6040 -0.5452 0.6630 71 28 45
0.9229 -0.5568 0.6745 49 64 85
0.9452 -0.5546 0.6755 50 68 90
0.9754 -0.5550 0.6751 51 70 92
1.0048 -0.5548 0.6745 51 70 92
1.0352 -0.5547 0.6745 52 71 93
1.0651 -0.5549 0.6727 50 70 92
1.0947 -0.5548 0.6732 51 70 92
1.1247 -0.5550 0.6775 51 70 92
1.1540 -0.5579 0.6817 51 70 92
1.1807 -0.5619 0.6856 50 68 89
3.8259 -0.5539 0.6752 97 96 94
-0.8134 -0.5145 0.6715 98 93 88
-0.7961 -0.5189 0.6765 93 88 86
-0.7690 -0.5255 0.6868 95 90 88
0.5630 -0.5296 0.6840 69 27 43
0.5871 -0.5266 0.6779 70 27 44
0.6120 -0.5223 0.6683 70 27 44
0.6349 -0.5140 0.6624 71 29 45
0.9246 -0.5314 0.6836 49 59 78
0.9453 -0.5316 0.6847 49 67 88
0.9762 -0.5303 0.6845 51 70 91
1.0062 -0.5283 0.6836 51 70 92
1.0350 -0.5266 0.6828 51 70 92
1.0647 -0.5274 0.6819 51 70 92
1.0950 -0.5283 0.6828 51 70 91
1.1227 -0.5308 0.6860 51 70 91
1.1500 -0.5363 0.6876 51 70 92
3.8260 -0.5253 0.6762 97 97 95
-0.8143 -0.4946 0.6719 100 94 89
-0.7974 -0.4950 0.6758 93 89 86
-0.7691 -0.4945 0.6866 97 92 90
0.5897 -0.4998 0.6838 70 28 44
0.6164 -0.4983 0.6768 71 28 45
0.6431 -0.4935 0.6717 70 27 44
0.6699 -0.4860 0.6651 71 28 44
0.9897 -0.5091 0.6897 50 69 91
1.0097 -0.5064 0.6878 51 70 92
1.0361 -0.5058 0.6865 51 70 93
1.0635 -0.5053 0.6871 51 70 92
1.0909 -0.5078 0.6881 50 69 91
3.8263 -0.4951 0.6755 98 98 96
-0.8137 -0.4656 0.6716 101 95 90
-0.7969 -0.4650 0.6757 94 90 88
-0.7690 -0.4649 0.6864 99 93 91
0.6204 -0.4718 0.6845 72 28 45
0.6480 -0.4690 0.6788 70 27 43
0.6751 -0.4671 0.6744 70 27 42
0.7026 -0.4655 0.6700 70 26 41
0.7347 -0.4572 0.6740 73 38 49
0.7620 -0.4562 0.6685 75 41 52
0.7900 -0.4535 0.6647 71 50 61
3.8262 -0.4641 0.6759 99 99 97
-0.8140 -0.4359 0.6716 103 97 91
-0.7973 -0.4342 0.6754 95 91 89
-0.7694 -0.4349 0.6862 100 95 93
0.6566 -0.4475 0.6889 73 28 43
0.6777 -0.4437 0.6816 69 25 40
0.7032 -0.4429 0.6689 70 26 41
0.7333 -0.4379 0.6658 70 26 40
0.7567 -0.4375 0.6628 69 26 39
0.8017 -0.4312 0.6612 66 25 37
0.8577 -0.4355 0.6636 71 35 45
0.8820 -0.4418 0.6649 88 74 80
3.8261 -0.4339 0.6752 99 99 98
-0.8136 -0.4047 0.6712 105 99 92
-0.7968 -0.4041 0.6755 97 93 90
-0.7687 -0.4048 0.6862 102 97 95
0.8838 -0.4193 0.6626 70 45 54
3.8262 -0.4049 0.6752 98 98 96
-0.8140 -0.3750 0.6716 108 101 93
-0.7973 -0.3747 0.6749 98 93 91
-0.7688 -0.3745 0.6860 104 99 97
3.8266 -0.3758 0.6754 98 98 97
-0.8134 -0.3465 0.6710 110 102 94
-0.7968 -0.3453 0.6749 99 94 92
-0.7688 -0.3452 0.6858 108 103 101
3.8265 -0.3457 0.6747 99 99 97
-0.8136 -0.3157 0.6709 113 104 95
-0.7969 -0.3155 0.6747 100 95 93
-0.7685 -0.3152 0.6856 110 105 103
3.8266 -0.3146 0.6752 99 100 98
-0.8139 -0.2860 0.6711 116 107 97
-0.7968 -0.2854 0.6747 103 97 95
-0.7687 -0.2854 0.6854 115 110 107
3.8267 -0.2834 0.6735 98 99 97
-0.8136 -0.2551 0.6708 119 109 97
-0.7969 -0.2556 0.6743 105 99 96
-0.7687 -0.2555 0.6853 117 112 109
3.8268 -0.2543 0.6752 99 99 98
-0.8134 -0.2246 0.6706 121 111 99
-0.7969 -0.2252 0.6744 107 102 98
-0.7685 -0.2252 0.6853 118 114 111
3.8268 -0.2253 0.6736 100 100 99
-0.8148 -0.1959 0.6707 124 113 102
-0.7980 -0.1944 0.6736 112 106 103
-0.7687 -0.1951 0.6852 120 115 112
3.8267 -0.1950 0.6751 100 101 100
-0.8149 -0.1652 0.6706 126 115 103
-0.7978 -0.1648 0.6737 114 108 105
-0.7684 -0.1652 0.6849 122 118 115
3.8270 -0.1650 0.6724 99 100 99
-0.8146 -0.1359 0.6703 127 116 103
-0.7981 -0.1351 0.6733 116 111 108
-0.7685 -0.1351 0.6847 123 119 115
3.8268 -0.1358 0.6764 99 99 98
-0.8146 -0.1059 0.6701 126 115 102
-0.7974 -0.1050 0.6736 118 112 108
-0.7686 -0.1049 0.6845 125 121 117
3.8271 -0.1054 0.6736 98 98 97
-0.8154 -0.0778 0.6703 127 114 101
-0.7972 -0.0779 0.6738 123 116 111
-0.7683 -0.0745 0.6846 126 121 116
3.8272 -0.0746 0.6753 99 100 99
-0.8124 -0.0522 0.6685 126 119 111
-0.7982 -0.0526 0.6732 128 123 119
-0.7684 -0.0546 0.6837 133 128 123
-0.5926 -0.0321 0.6741 204 175 140
3.8273 -0.0449 0.6751 101 101 100
-0.6266 -0.0151 0.6667 210 179 142
-0.5924 -0.0152 0.6748 211 180 142
3.8272 -0.0147 0.6757 100 100 99
-0.6267 0.0153 0.6659 223 189 147
-0.5924 0.0146 0.6752 221 188 146
3.8273 0.0156 0.6766 99 100 99
-0.6265 0.0447 0.6661 232 196 150
-0.5925 0.0452 0.6750 233 197 151
3.8274 0.0446 0.6752 99 100 98
-0.6265 0.0757 0.6657 238 201 153
-0.5925 0.0756 0.6750 238 201 153
3.8274 0.0746 0.6752 98 99 97
-0.6263 0.1041 0.6665 240 202 153
-0.5926 0.1045 0.6751 241 203 154
3.8277 0.1058 0.6746 99 100 99
-0.6261 0.1343 0.6659 237 200 152
-0.5927 0.1352 0.6750 237 200 152
3.8276 0.1362 0.6756 100 101 100
-0.6261 0.1655 0.6649 229 193 148
-0.5928 0.1653 0.6748 229 193 148
3.8278 0.1650 0.6742 101 102 102
-0.6264 0.1818 0.6642 224 189 146
-0.5930 0.1879 0.6737 220 187 145
3.8279 0.1943 0.6756 100 102 102
3.8278 0.2243 0.6732 98 100 99
-1.1068 0.2601 0.6652 174 151 119
3.8280 0.2556 0.6758 98 100 99
-1.1068 0.2862 0.6678 197 168 127
3.8281 0.2855 0.6730 99 100 100
-1.1071 0.3141 0.6702 199 169 130
3.8279 0.3159 0.6744 98 99 99
-1.1070 0.3460 0.6713 194 166 129
3.8281 0.3458 0.6756 97 99 99
-1.1072 0.3745 0.6741 190 163 129
3.8280 0.3759 0.6751 98 100 100
-1.1075 0.4054 0.6755 184 159 127
3.8282 0.4053 0.6747 97 99 98
-1.1075 0.4348 0.6758 175 152 122
3.8284 0.4348 0.6756 98 99 99
3.8286 0.4643 0.6748 98 99 98
3.8284 0.4955 0.6760 97 98 98
3.8284 0.5258 0.6754 97 99 98
3.8288 0.5549 0.6753 98 99 99
3.8286 0.5839 0.6751 97 98 98
3.8289 0.6143 0.6746 97 98 98
3.8287 0.6442 0.6746 97 98 98
3.8289 0.6743 0.6749 96 97 96
3.8291 0.7047 0.6744 94 96 94
3.8292 0.7337 0.6743 94 95 94
3.8293 0.7642 0.6751 95 97 97
3.8291 0.7929 0.6736 96 97 97
3.8294 0.8251 0.6766 96 98 99
3.8296 0.8553 0.6726 96 98 98
3.8295 0.8862 0.6752 96 97 97
3.8295 0.9160 0.6750 95 96 96
3.8296 0.9465 0.6758 94 95 94
3.8297 0.9756 0.6757 94 95 94
3.8297 1.0058 0.6751 93 93 92
3.8299 1.0360 0.6753 92 92 90
3.8299 1.0660 0.6755 91 92 89
2.5364 1.1099 0.6822 110 110 113
2.6078 1.1097 0.6830 109 109 112
2.6303 1.1096 0.6707 109 109 112
2.6652 1.1097 0.6626 109 109 113
3.8301 1.0935 0.6729 85 87 87
-0.4813 1.1240 0.6629 155 144 134
-0.4617 1.1238 0.6697 155 144 134
-0.4357 1.1235 0.6743 154 143 134
-0.4049 1.1235 0.6748 154 143 134
-0.3748 1.1233 0.6757 153 143 134
-0.3443 1.1232 0.6748 152 143 135
-0.3149 1.1232 0.6747 152 142 135
-0.2901 1.1233 0.6776 151 142 135
2.1762 1.1115 0.6753 116 116 121
2.2045 1.1113 0.6755 115 116 120
2.2342 1.1112 0.6754 115 116 120
2.2656 1.1111 0.6730 114 115 119
2.2943 1.1112 0.6755 114 114 118
2.3231 1.1111 0.6751 113 114 118
2.3557 1.1110 0.6754 113 113 117
2.3851 1.1109 0.6739 112 112 116
2.4153 1.1109 0.6750 112 112 115
2.4446 1.1107 0.6768 111 111 114
2.4751 1.1106 0.6751 111 111 114
2.5060 1.1106 0.6758 110 110 113
2.5345 1.1105 0.6742 110 110 113
2.5650 1.1104 0.6734 109 109 113
2.5930 1.1104 0.6744 109 109 112
2.6217 1.1104 0.6707 109 109 112
2.6566 1.1104 0.6677 109 109 113
3.7970 -1.3820 0.6980 88 83 81
-0.6001 -1.3627 0.7001 64 50 44
-0.5804 -1.3711 0.7045 74 50 38
-0.5548 -1.3717 0.7058 87 56 42
-0.5249 -1.3715 0.7050 91 61 44
-0.4952 -1.3718 0.7054 91 61 44
-0.4655 -1.3716 0.7053 87 57 43
-0.4351 -1.3714 0.7050 87 56 42
-0.4051 -1.3714 0.7057 84 53 41
-0.3749 -1.3714 0.7049 87 57 43
-0.3444 -1.3713 0.7054 87 56 42
-0.3149 -1.3713 0.7052 87 56 42
-0.2852 -1.3713 0.7057 82 54 41
-0.2551 -1.3714 0.7048 82 54 41
-0.2254 -1.3711 0.7053 79 52 40
-0.1957 -1.3711 0.7050 76 50 38
-0.1652 -1.3710 0.7050 75 48 37
-0.1406 -1.3715 0.7052 72 46 35
3.7972 -1.3642 0.7050 89 84 82
-0.7613 -1.3249 0.6945 83 83 84
-0.7433 -1.3271 0.6999 86 84 83
-0.6970 -1.3275 0.6986 95 94 92
-0.6737 -1.3272 0.7042 95 94 93
-0.6447 -1.3271 0.7049 95 94 93
-0.6161 -1.3271 0.7045 95 94 92
-0.5983 -1.3287 0.6995 87 85 83
3.7973 -1.3349 0.7050 90 86 84
-0.9096 -1.3162 0.7027 90 89 87
-0.8866 -1.3161 0.7029 90 89 89
-0.8538 -1.3160 0.6991 90 89 88
-0.8261 -1.3162 0.6949 90 89 89
-0.7963 -1.3071 0.6917 78 76 74
-0.7616 -1.3066 0.6951 85 85 87
-0.7364 -1.3161 0.6975 92 92 92
-0.7022 -1.3160 0.6919 93 93 93
-0.6729 -1.3161 0.7046 93 93 94
-0.6470 -1.3160 0.7046 94 94 94
-0.6237 -1.3162 0.6957 94 94 94
3.7971 -1.3057 0.7050 91 86 85
-0.7935 -1.2726 0.6909 75 71 69
-0.7621 -1.2755 0.6945 85 86 88
3.7974 -1.2739 0.7057 91 86 85
-0.7934 -1.2420 0.6906 76 66 62
-0.7621 -1.2454 0.6945 84 80 81
3.7973 -1.2567 0.7015 91 87 85
3.8202 -1.2404 0.7070 84 80 76
-0.7935 -1.2176 0.6910 80 66 61
-0.7624 -1.2147 0.6941 80 68 66
3.8237 -1.2152 0.7041 82 78 74
-0.7935 -1.1871 0.6909 90 86 86
-0.7620 -1.1848 0.6944 78 64 61
3.8241 -1.1838 0.7047 82 78 74
-0.7935 -1.1442 0.6908 92 89 88
-0.7621 -1.1557 0.6941 78 64 62
3.8239 -1.1547 0.7046 83 79 75
-0.7623 -1.1255 0.6938 78 65 64
3.8241 -1.1256 0.7047 83 80 75
-0.7623 -1.0963 0.6937 79 67 66
3.8242 -1.0965 0.7046 84 81 77
-0.7671 -1.0639 0.6949 79 75 77
3.8242 -1.0651 0.7041 86 83 79
-0.7668 -1.0358 0.6952 79 76 77
3.8242 -1.0345 0.7049 86 83 79
-0.7661 -1.0054 0.6961 85 84 84
3.8243 -1.0051 0.7047 87 84 80
-0.7663 -0.9759 0.6967 88 86 86
3.8246 -0.9757 0.7050 88 86 83
-0.7660 -0.9450 0.6958 91 89 88
3.8245 -0.9461 0.7061 90 88 85
-0.7655 -0.9147 0.6965 96 94 94
3.8246 -0.9143 0.7052 91 89 86
-0.7661 -0.8841 0.6951 94 91 90
0.5794 -0.8703 0.6922 10 8 8
0.6119 -0.8708 0.6914 9 8 8
0.9759 -0.8713 0.6915 46 49 52
1.0022 -0.8714 0.6920 25 26 28
1.1010 -0.8771 0.7062 35 39 43
1.1189 -0.8719 0.7019 24 24 25
1.9778 -0.8738 0.7060 107 109 108
3.8245 -0.8843 0.7060 92 91 88
-0.7590 -0.8536 0.6943 84 78 75
0.4708 -0.8466 0.7076 76 62 66
0.4937 -0.8453 0.6979 66 48 55
0.5165 -0.8460 0.6923 46 36 39
0.5860 -0.8692 0.6940 17 8 11
0.6150 -0.8698 0.6902 11 7 8
1.9778 -0.8549 0.7052 111 111 111
3.8247 -0.8541 0.7052 93 92 89
-0.7599 -0.8243 0.6940 87 81 78
0.4734 -0.8267 0.7121 62 24 39
0.4903 -0.8251 0.6980 62 24 40
1.9777 -0.8258 0.7055 113 114 113
3.8248 -0.8251 0.7049 93 92 90
-0.7582 -0.7948 0.6947 89 83 79
0.4736 -0.7959 0.7109 62 23 38
0.4898 -0.7953 0.6973 63 24 40
1.9778 -0.7948 0.7052 116 116 116
3.8249 -0.7947 0.7043 94 92 90
-0.7572 -0.7670 0.6944 89 83 79
0.4744 -0.7663 0.7098 60 22 36
0.4869 -0.7660 0.6961 64 25 41
1.9779 -0.7644 0.7047 118 118 118
3.8250 -0.7645 0.7059 94 93 91
-0.7563 -0.7354 0.6939 88 82 78
0.4781 -0.7353 0.7065 60 22 34
0.4842 -0.7341 0.6937 63 23 37
1.9783 -0.7388 0.7034 120 118 118
1.9813 -0.7234 0.7089 122 120 118
3.8249 -0.7341 0.7052 94 93 91
-0.7573 -0.7045 0.6947 92 87 83
0.4797 -0.7126 0.7101 59 20 32
0.4867 -0.7062 0.6966 62 23 36
1.9859 -0.7150 0.7034 118 117 114
3.8249 -0.7050 0.7050 95 94 92
-0.7577 -0.6744 0.6948 93 88 84
0.4934 -0.6717 0.6979 63 23 37
3.8251 -0.6747 0.7042 95 94 91
-0.7573 -0.6452 0.6942 93 88 83
0.4989 -0.6426 0.7003 64 24 38
0.5117 -0.6355 0.6912 68 27 43
3.8252 -0.6446 0.7050 95 94 92
-0.7566 -0.6152 0.6947 94 89 84
0.5014 -0.6161 0.7064 65 24 39
0.5159 -0.6123 0.6956 68 26 42
1.2322 -0.6104 0.6956 45 59 74
3.8253 -0.6154 0.7033 97 96 94
-0.7574 -0.5842 0.6951 97 92 87
0.5034 -0.5893 0.7112 66 25 39
0.5239 -0.5840 0.7027 68 26 42
0.5426 -0.5745 0.6937 71 28 44
1.2173 -0.5799 0.6950 46 62 80
1.2334 -0.5826 0.7092 45 59 75
3.8254 -0.5851 0.7048 96 96 94
-0.7566 -0.5552 0.6941 97 92 87
0.5057 -0.5661 0.7173 67 24 38
0.5299 -0.5567 0.7089 68 26 42
0.5492 -0.5523 0.6991 69 27 43
1.1601 -0.5448 0.6926 50 68 90
1.1870 -0.5504 0.6959 50 67 88
1.2129 -0.5552 0.7046 47 63 82
3.8254 -0.5547 0.7042 97 96 94
-0.7567 -0.5241 0.6948 100 95 91
